ply
format ascii 1.0
element vertex 2526
property float x
property float y
property float z
end_header
2.641 2 0.082 
2.646 1.997 0.079 
2.647 1.989 0.076 
2.648 1.983 0.073 
2.656 1.982 0.071 
2.659 1.977 0.068 
2.663 1.971 0.066 
2.663 1.964 0.063 
2.671 1.962 0.06 
2.671 1.955 0.058 
2.675 1.949 0.055 
2.682 1.946 0.053 
-0.03 0.088 0 
-0.03 0.088 0 
4.409 3.095 0.074 
-0.03 0.088 0 
-0.03 0.088 0 
-0.03 0.088 0 
2.695 1.903 0.035 
2.485 1.755 0.03 
2.227 1.579 0.025 
2.04 1.45 0.02 
1.928 1.369 0.018 
-0.03 0.088 0 
-0.03 0.088 0 
-0.03 0.088 0 
4.542 3.03 0.026 
4.429 2.946 0.021 
4.442 2.942 0.017 
4.434 2.925 0.013 
4.457 2.926 0.01 
4.414 2.888 0.005 
4.994 3.238 0.002 
4.898 3.165 -0.001 
4.624 2.981 -0.005 
4.719 3.027 -0.009 
4.726 3.018 -0.013 
4.72 3.002 -0.016 
4.709 2.981 -0.019 
4.666 2.942 -0.023 
4.679 2.937 -0.027 
4.692 2.932 -0.03 
4.687 2.916 -0.034 
4.69 2.905 -0.038 
4.687 2.89 -0.041 
4.709 2.89 -0.045 
4.706 2.875 -0.049 
4.716 2.868 -0.052 
4.707 2.85 -0.056 
4.72 2.845 -0.059 
4.678 2.808 -0.062 
4.632 2.77 -0.065 
4.642 2.763 -0.068 
4.687 2.775 -0.072 
4.803 2.828 -0.077 
4.882 2.86 -0.082 
4.928 2.873 -0.086 
4.718 2.742 -0.085 
4.692 2.715 -0.088 
4.78 2.75 -0.093 
4.86 2.781 -0.098 
4.752 2.71 -0.098 
4.69 2.663 -0.1 
4.696 2.653 -0.104 
4.687 2.636 -0.106 
4.642 2.599 -0.108 
4.643 2.588 -0.111 
4.672 2.591 -0.115 
4.688 2.586 -0.118 
4.684 2.573 -0.12 
4.675 2.555 -0.123 
4.704 2.558 -0.126 
4.718 2.553 -0.129 
4.706 2.534 -0.132 
4.728 2.533 -0.135 
4.685 2.499 -0.136 
5.099 2.696 -0.151 
5.152 2.711 -0.156 
5.143 2.693 -0.158 
5.14 2.677 -0.161 
5.145 2.666 -0.164 
5.125 2.643 -0.166 
5.134 2.635 -0.169 
5.127 2.618 -0.171 
5.119 2.602 -0.173 
5.113 2.586 -0.174 
5.111 2.572 -0.177 
5.099 2.553 -0.179 
5.089 2.535 -0.181 
5.079 2.518 -0.183 
5.062 2.497 -0.184 
5.067 2.487 -0.187 
5.057 2.469 -0.189 
-0.03 0.088 0 
-0.03 0.088 0 
-0.03 0.088 0 
-0.03 0.088 0 
2.329 1.164 -0.092 
2.411 1.194 -0.096 
2.337 1.156 -0.094 
2.367 1.164 -0.096 
2.365 1.157 -0.097 
2.374 1.155 -0.098 
2.386 1.155 -0.1 
2.396 1.152 -0.101 
2.396 1.146 -0.102 
2.4 1.143 -0.102 
2.405 1.139 -0.104 
2.413 1.137 -0.105 
2.417 1.133 -0.105 
2.415 1.127 -0.106 
2.417 1.122 -0.107 
2.423 1.119 -0.108 
2.425 1.114 -0.109 
2.426 1.109 -0.109 
2.435 1.107 -0.11 
2.443 1.104 -0.111 
2.438 1.097 -0.112 
2.449 1.095 -0.113 
2.452 1.091 -0.114 
2.453 1.086 -0.114 
2.458 1.082 -0.115 
2.46 1.077 -0.116 
2.462 1.073 -0.116 
2.465 1.069 -0.117 
2.469 1.064 -0.117 
2.472 1.06 -0.118 
2.476 1.055 -0.119 
2.477 1.051 -0.119 
2.481 1.047 -0.12 
2.484 1.043 -0.12 
2.486 1.038 -0.121 
2.487 1.033 -0.121 
2.492 1.029 -0.122 
2.495 1.025 -0.122 
2.497 1.02 -0.123 
2.502 1.018 -0.123 
2.503 1.011 -0.124 
2.509 1.008 -0.124 
2.508 1.003 -0.124 
2.51 0.999 -0.125 
2.516 0.995 -0.125 
2.515 0.991 -0.125 
2.519 0.987 -0.126 
2.521 0.982 -0.126 
2.523 0.978 -0.126 
2.525 0.973 -0.126 
2.534 0.971 -0.127 
2.535 0.966 -0.127 
2.536 0.962 -0.127 
2.534 0.956 -0.127 
2.542 0.954 -0.129 
2.544 0.949 -0.129 
2.545 0.945 -0.129 
2.547 0.94 -0.129 
2.552 0.938 -0.129 
2.599 0.948 -0.131 
2.661 0.962 -0.134 
2.67 0.961 -0.135 
2.676 0.957 -0.135 
2.682 0.955 -0.135 
2.69 0.953 -0.135 
2.687 0.947 -0.135 
2.69 0.942 -0.135 
2.695 0.939 -0.135 
2.691 0.932 -0.135 
2.69 0.927 -0.134 
2.697 0.924 -0.134 
2.698 0.92 -0.134 
2.7 0.915 -0.134 
2.701 0.912 -0.134 
2.702 0.907 -0.134 
2.705 0.904 -0.134 
2.705 0.899 -0.133 
2.708 0.895 -0.133 
2.703 0.889 -0.132 
2.705 0.885 -0.132 
2.71 0.881 -0.132 
2.713 0.878 -0.132 
2.712 0.873 -0.131 
2.716 0.869 -0.131 
2.719 0.866 -0.131 
2.718 0.861 -0.13 
2.719 0.858 -0.13 
2.723 0.854 -0.129 
2.721 0.85 -0.129 
2.723 0.846 -0.128 
2.716 0.839 -0.127 
2.718 0.836 -0.127 
2.721 0.832 -0.126 
2.716 0.827 -0.126 
2.718 0.823 -0.125 
2.719 0.819 -0.125 
2.722 0.816 -0.124 
2.72 0.812 -0.123 
2.72 0.807 -0.123 
2.72 0.804 -0.122 
2.728 0.802 -0.121 
2.729 0.798 -0.121 
2.728 0.794 -0.12 
2.725 0.789 -0.119 
2.732 0.787 -0.119 
2.732 0.784 -0.118 
2.732 0.779 -0.117 
2.735 0.776 -0.116 
2.735 0.773 -0.116 
2.736 0.77 -0.115 
2.74 0.767 -0.114 
2.742 0.764 -0.113 
2.742 0.761 -0.112 
2.744 0.757 -0.112 
2.745 0.755 -0.111 
2.745 0.751 -0.11 
2.743 0.748 -0.109 
2.744 0.744 -0.108 
2.742 0.74 -0.107 
2.743 0.738 -0.106 
2.746 0.735 -0.105 
2.745 0.731 -0.104 
2.752 0.73 -0.103 
2.749 0.726 -0.102 
2.755 0.724 -0.101 
2.749 0.72 -0.1 
2.75 0.717 -0.099 
2.725 0.708 -0.097 
2.693 0.698 -0.095 
-0.03 0.088 0 
-0.03 0.088 0 
-0.03 0.088 0 
5.669 1.341 -0.191 
-0.03 0.088 0 
5.626 1.321 -0.184 
5.667 1.324 -0.184 
5.67 1.32 -0.182 
5.679 1.316 -0.179 
5.715 1.318 -0.178 
5.75 1.321 -0.176 
5.78 1.322 -0.175 
5.82 1.325 -0.173 
5.83 1.322 -0.171 
5.81 1.313 -0.168 
5.784 1.302 -0.164 
5.792 1.299 -0.162 
5.776 1.291 -0.159 
5.753 1.282 -0.156 
5.761 1.278 -0.153 
5.744 1.271 -0.15 
5.729 1.264 -0.147 
5.703 1.253 -0.144 
5.718 1.253 -0.141 
5.713 1.247 -0.138 
5.705 1.241 -0.135 
5.704 1.237 -0.133 
5.686 1.23 -0.13 
5.677 1.224 -0.127 
5.678 1.22 -0.124 
5.66 1.213 -0.121 
5.646 1.207 -0.118 
5.657 1.206 -0.115 
5.64 1.198 -0.112 
5.614 1.19 -0.108 
5.602 1.184 -0.105 
5.594 1.18 -0.102 
5.602 1.179 -0.099 
5.622 1.18 -0.096 
5.615 1.175 -0.093 
5.616 1.172 -0.09 
5.627 1.171 -0.089 
5.635 1.17 -0.086 
5.629 1.167 -0.083 
5.624 1.164 -0.079 
5.612 1.159 -0.076 
5.599 1.154 -0.072 
5.61 1.153 -0.07 
5.613 1.152 -0.067 
5.619 1.15 -0.064 
5.608 1.147 -0.061 
5.598 1.143 -0.058 
5.615 1.143 -0.055 
5.635 1.146 -0.053 
5.706 1.157 -0.05 
5.745 1.163 -0.047 
5.73 1.158 -0.044 
5.732 1.157 -0.041 
5.749 1.159 -0.038 
5.774 1.162 -0.035 
5.62 1.132 -0.03 
5.598 1.127 -0.027 
5.649 1.135 -0.025 
5.698 1.143 -0.022 
5.8 1.161 -0.02 
5.897 1.178 -0.018 
5.998 1.196 -0.014 
6.142 1.221 -0.012 
6.176 1.227 -0.009 
6.207 1.232 -0.005 
6.237 1.236 -0.001 
6.242 1.237 0.001 
6.251 1.239 0.004 
6.244 1.237 0.008 
6.268 1.24 0.011 
6.243 1.236 0.014 
6.265 1.24 0.018 
6.247 1.237 0.021 
6.249 1.238 0.025 
6.223 1.233 0.028 
6.165 1.223 0.031 
6.102 1.212 0.035 
5.95 1.184 0.036 
5.838 1.164 0.039 
5.741 1.147 0.041 
5.673 1.135 0.044 
5.608 1.124 0.047 
5.607 1.125 0.05 
5.769 1.156 0.054 
5.751 1.154 0.057 
5.725 1.15 0.059 
5.715 1.149 0.062 
5.706 1.148 0.065 
5.717 1.153 0.068 
5.674 1.145 0.071 
5.616 1.137 0.074 
5.613 1.137 0.076 
5.606 1.138 0.079 
5.606 1.139 0.082 
5.604 1.14 0.085 
5.596 1.141 0.088 
5.596 1.143 0.09 
5.597 1.145 0.093 
5.59 1.146 0.096 
5.598 1.149 0.099 
5.596 1.152 0.102 
5.616 1.158 0.105 
5.635 1.164 0.107 
5.653 1.169 0.11 
5.666 1.175 0.113 
5.667 1.178 0.116 
5.691 1.185 0.119 
5.737 1.197 0.123 
5.751 1.202 0.127 
5.805 1.216 0.131 
5.846 1.227 0.134 
5.879 1.237 0.138 
5.921 1.248 0.141 
5.959 1.259 0.145 
6.01 1.273 0.149 
6.055 1.285 0.153 
6.115 1.3 0.157 
6.144 1.31 0.16 
6.149 1.315 0.163 
6.186 1.326 0.167 
6.187 1.331 0.169 
6.167 1.331 0.171 
6.167 1.335 0.174 
6.172 1.34 0.177 
6.152 1.341 0.179 
6.15 1.345 0.181 
6.136 1.348 0.184 
6.135 1.352 0.187 
6.139 1.357 0.189 
6.134 1.361 0.192 
6.146 1.368 0.194 
6.15 1.374 0.196 
6.208 1.391 0.201 
6.109 1.376 0.2 
6.166 1.393 0.204 
9.14 2.028 0.306 
9.15 2.038 0.31 
9.157 2.048 0.314 
9.143 2.054 0.316 
9.146 2.063 0.32 
9.139 2.071 0.323 
9.14 2.079 0.326 
9.133 2.086 0.329 
9.131 2.095 0.332 
9.144 2.107 0.335 
9.125 2.112 0.337 
9.123 2.12 0.34 
9.117 2.128 0.343 
9.121 2.138 0.346 
9.115 2.147 0.348 
9.115 2.157 0.351 
9.126 2.169 0.354 
9.101 2.173 0.356 
9.092 2.181 0.358 
9.094 2.192 0.36 
9.09 2.201 0.363 
9.083 2.21 0.365 
9.088 2.221 0.367 
9.074 2.229 0.369 
9.085 2.242 0.372 
9.087 2.254 0.374 
9.061 2.258 0.375 
9.072 2.272 0.378 
9.068 2.282 0.379 
9.054 2.29 0.381 
9.025 2.294 0.381 
8.965 2.291 0.381 
8.914 2.29 0.381 
8.788 2.27 0.377 
8.715 2.263 0.376 
8.831 2.303 0.382 
9.035 2.367 0.392 
9.04 2.38 0.394 
9.038 2.391 0.395 
9.028 2.402 0.396 
9.033 2.415 0.398 
9.023 2.426 0.399 
9.017 2.436 0.4 
9.013 2.448 0.401 
9.01 2.46 0.402 
8.999 2.471 0.402 
9.034 2.492 0.405 
9.067 2.515 0.407 
9.034 2.518 0.406 
9.024 2.529 0.407 
9.026 2.544 0.408 
9.011 2.552 0.408 
8.997 2.563 0.408 
8.994 2.575 0.408 
8.981 2.586 0.408 
8.978 2.598 0.408 
8.959 2.607 0.409 
8.952 2.619 0.409 
8.942 2.631 0.409 
8.92 2.638 0.408 
8.917 2.652 0.408 
8.914 2.665 0.407 
8.888 2.672 0.406 
8.879 2.684 0.406 
8.894 2.703 0.406 
8.892 2.717 0.406 
8.888 2.731 0.406 
8.866 2.739 0.404 
8.857 2.751 0.403 
8.342 2.611 0.379 
8.216 2.587 0.373 
8.231 2.606 0.373 
8.286 2.637 0.375 
8.34 2.668 0.377 
8.356 2.687 0.377 
8.406 2.718 0.379 
8.438 2.743 0.38 
8.426 2.755 0.378 
8.437 2.772 0.378 
8.445 2.79 0.377 
8.437 2.804 0.376 
8.451 2.823 0.375 
8.457 2.84 0.374 
8.436 2.849 0.372 
8.452 2.87 0.371 
8.455 2.887 0.37 
8.454 2.902 0.368 
8.437 2.912 0.366 
8.452 2.934 0.365 
8.451 2.949 0.363 
8.453 2.966 0.362 
8.451 2.982 0.36 
8.436 2.992 0.357 
8.442 3.011 0.356 
8.453 3.031 0.354 
8.447 3.046 0.352 
8.465 3.069 0.35 
8.446 3.079 0.348 
8.446 3.095 0.345 
8.449 3.113 0.343 
8.448 3.13 0.341 
8.446 3.146 0.338 
8.442 3.162 0.335 
8.438 3.178 0.333 
8.45 3.199 0.331 
8.412 3.202 0.326 
8.407 3.218 0.323 
8.4 3.232 0.32 
8.391 3.247 0.317 
8.384 3.262 0.314 
8.365 3.273 0.31 
8.362 3.289 0.307 
8.357 3.305 0.303 
8.335 3.314 0.299 
8.328 3.329 0.296 
8.314 3.341 0.292 
8.312 3.359 0.288 
-0.03 0.088 0 
5.505 2.281 0.186 
5.568 2.319 0.186 
5.546 2.322 0.183 
5.508 2.319 0.179 
5.482 2.321 0.176 
5.474 2.329 0.173 
5.443 2.329 0.169 
5.446 2.342 0.167 
5.447 2.355 0.164 
5.468 2.376 0.162 
5.508 2.405 0.161 
5.478 2.404 0.157 
5.475 2.415 0.154 
5.494 2.435 0.152 
5.488 2.446 0.149 
5.495 2.461 0.146 
5.51 2.48 0.143 
5.482 2.482 0.14 
5.485 2.495 0.137 
5.471 2.502 0.133 
5.447 2.504 0.129 
5.483 2.532 0.127 
5.424 2.519 0.122 
5.446 2.542 0.119 
5.446 2.554 0.116 
5.457 2.572 0.113 
5.452 2.583 0.109 
5.435 2.589 0.106 
5.441 2.603 0.102 
5.435 2.614 0.099 
5.403 2.611 0.094 
5.408 2.627 0.091 
5.381 2.627 0.086 
5.388 2.645 0.083 
5.369 2.647 0.08 
5.37 2.661 0.076 
5.368 2.673 0.072 
5.338 2.672 0.068 
5.372 2.701 0.065 
5.343 2.701 0.06 
5.336 2.71 0.056 
5.346 2.729 0.052 
5.331 2.734 0.048 
5.35 2.756 0.044 
5.323 2.757 0.04 
5.338 2.777 0.036 
5.289 2.766 0.031 
5.311 2.791 0.027 
5.272 2.784 0.023 
5.303 2.813 0.019 
5.261 2.805 0.014 
5.287 2.831 0.01 
5.289 2.845 0.006 
5.279 2.853 0.001 
5.246 2.849 -0.002 
5.23 2.855 -0.007 
5.234 2.87 -0.011 
5.231 2.882 -0.016 
5.236 2.898 -0.02 
5.213 2.898 -0.024 
5.215 2.913 -0.029 
5.199 2.918 -0.033 
5.204 2.933 -0.038 
5.209 2.95 -0.043 
5.198 2.957 -0.048 
5.18 2.96 -0.052 
5.157 2.96 -0.057 
5.166 2.98 -0.062 
5.178 2.999 -0.067 
5.155 3 -0.072 
4.992 2.921 -0.074 
4.808 2.83 -0.075 
4.664 2.76 -0.078 
4.65 2.764 -0.083 
4.633 2.767 -0.087 
4.647 2.787 -0.092 
4.663 2.807 -0.097 
4.66 2.818 -0.102 
4.667 2.834 -0.107 
4.662 2.844 -0.111 
4.667 2.858 -0.116 
4.666 2.87 -0.121 
4.668 2.884 -0.126 
4.7 2.915 -0.132 
4.701 2.929 -0.137 
4.669 2.922 -0.141 
4.672 2.935 -0.146 
4.658 2.94 -0.151 
4.657 2.95 -0.156 
4.643 2.954 -0.16 
4.647 2.969 -0.166 
4.636 2.974 -0.171 
4.618 2.975 -0.175 
4.596 2.975 -0.179 
4.584 2.979 -0.183 
4.499 2.938 -0.186 
4.458 2.924 -0.189 
4.442 2.925 -0.194 
4.428 2.928 -0.198 
1.825 1.275 -0.084 
1.839 1.288 -0.087 
1.834 1.29 -0.089 
1.838 1.298 -0.092 
1.834 1.299 -0.094 
1.835 1.306 -0.096 
-0.03 0.088 0 
-0.03 0.088 0 
-0.03 0.088 0 
4.427 3.044 -0.252 
4.458 3.078 -0.259 
-0.03 0.088 0 
-0.03 0.088 0 
-0.03 0.088 0 
-0.03 0.088 0 
-0.03 0.088 0 
2.716 1.961 -0.179 
2.7 1.956 -0.181 
2.699 1.962 -0.185 
2.694 1.966 -0.188 
2.69 1.971 -0.191 
2.688 1.977 -0.195 
2.688 1.984 -0.198 
2.682 1.987 -0.201 
2.682 1.993 -0.205 
2.68 1.999 -0.208 
2.676 2.003 -0.211 
2.673 2.007 -0.215 
2.67 2.014 -0.218 
2.668 2.017 -0.222 
2.662 2.022 -0.225 
2.647 2.017 -0.227 
2.627 2.01 -0.229 
2.59 1.99 -0.23 
2.281 1.772 -0.205 
2.06 1.616 -0.189 
1.769 1.408 -0.164 
1.753 1.401 -0.166 
1.724 1.384 -0.165 
1.709 1.378 -0.166 
1.699 1.374 -0.168 
1.687 1.369 -0.169 
1.678 1.367 -0.171 
1.659 1.357 -0.171 
1.642 1.348 -0.172 
1.63 1.344 -0.173 
1.617 1.338 -0.174 
1.593 1.323 -0.174 
1.563 1.305 -0.173 
1.538 1.289 -0.173 
1.526 1.285 -0.174 
1.511 1.276 -0.174 
1.498 1.269 -0.175 
1.486 1.264 -0.175 
1.473 1.258 -0.176 
1.461 1.253 -0.177 
1.457 1.253 -0.179 
1.45 1.251 -0.18 
1.44 1.246 -0.181 
1.427 1.24 -0.182 
1.409 1.229 -0.182 
1.385 1.214 -0.181 
1.353 1.192 -0.179 
1.362 1.201 -0.182 
1.364 1.206 -0.185 
1.363 1.209 -0.187 
1.353 1.204 -0.187 
1.337 1.194 -0.187 
1.318 1.182 -0.187 
1.305 1.175 -0.187 
1.306 1.179 -0.19 
1.293 1.171 -0.19 
1.28 1.163 -0.19 
1.265 1.154 -0.19 
1.239 1.135 -0.187 
1.225 1.127 -0.187 
1.208 1.115 -0.186 
1.201 1.112 -0.187 
1.194 1.109 -0.188 
1.189 1.108 -0.189 
1.187 1.109 -0.191 
1.208 1.129 -0.196 
1.191 1.118 -0.195 
1.183 1.113 -0.196 
1.188 1.12 -0.199 
1.186 1.121 -0.2 
1.159 1.101 -0.198 
1.179 1.12 -0.203 
1.171 1.116 -0.204 
1.157 1.106 -0.203 
1.147 1.101 -0.203 
1.141 1.099 -0.204 
1.132 1.092 -0.205 
1.137 1.098 -0.207 
1.123 1.089 -0.207 
1.125 1.093 -0.209 
1.12 1.091 -0.21 
1.122 1.096 -0.212 
1.12 1.096 -0.213 
1.096 1.077 -0.211 
1.101 1.083 -0.213 
1.097 1.082 -0.214 
1.082 1.071 -0.213 
1.081 1.072 -0.215 
1.06 1.055 -0.213 
1.046 1.045 -0.212 
1.042 1.044 -0.213 
1.032 1.037 -0.212 
1.027 1.034 -0.213 
1.02 1.03 -0.213 
1.008 1.02 -0.213 
1.002 1.016 -0.213 
1.008 1.024 -0.216 
1.008 1.027 -0.218 
0.997 1.018 -0.216 
0.998 1.021 -0.218 
0.998 1.021 -0.219 
0.996 1.021 -0.221 
0.987 1.016 -0.22 
0.987 1.016 -0.222 
0.985 1.016 -0.223 
0.98 1.014 -0.224 
0.981 1.016 -0.225 
0.974 1.011 -0.225 
0.972 1.01 -0.226 
0.973 1.013 -0.228 
0.971 1.013 -0.229 
0.971 1.014 -0.231 
0.958 1.003 -0.229 
0.971 1.016 -0.234 
0.965 1.013 -0.234 
0.96 1.01 -0.234 
0.96 1.01 -0.236 
0.967 1.019 -0.239 
0.952 1.006 -0.237 
0.938 0.994 -0.235 
0.945 1.002 -0.238 
0.936 0.995 -0.237 
0.933 0.993 -0.238 
0.94 1.001 -0.241 
0.938 1 -0.242 
0.925 0.989 -0.24 
0.922 0.987 -0.241 
0.924 0.989 -0.243 
0.921 0.988 -0.243 
0.927 0.994 -0.246 
0.915 0.986 -0.245 
0.918 0.989 -0.247 
0.908 0.98 -0.246 
0.914 0.986 -0.248 
0.903 0.977 -0.247 
0.907 0.982 -0.249 
0.906 0.982 -0.25 
0.905 0.982 -0.25 
0.903 0.98 -0.252 
0.907 0.986 -0.255 
0.905 0.983 -0.255 
0.895 0.975 -0.254 
0.89 0.971 -0.254 
0.886 0.968 -0.254 
0.891 0.973 -0.256 
0.899 0.982 -0.26 
0.89 0.973 -0.258 
0.89 0.974 -0.26 
0.89 0.974 -0.261 
0.884 0.97 -0.26 
0.884 0.97 -0.261 
0.881 0.968 -0.262 
0.863 0.951 -0.258 
0.876 0.964 -0.263 
0.888 0.976 -0.267 
0.876 0.964 -0.265 
0.875 0.964 -0.266 
0.865 0.955 -0.264 
0.859 0.95 -0.263 
0.864 0.955 -0.266 
0.862 0.953 -0.266 
0.861 0.953 -0.267 
0.857 0.95 -0.267 
0.873 0.965 -0.272 
0.883 0.974 -0.276 
0.857 0.95 -0.27 
0.857 0.95 -0.27 
0.857 0.95 -0.271 
0.865 0.958 -0.275 
0.871 0.964 -0.278 
0.856 0.949 -0.274 
0.868 0.962 -0.279 
0.865 0.958 -0.279 
0.87 0.963 -0.281 
0.867 0.961 -0.281 
0.872 0.965 -0.283 
0.868 0.962 -0.283 
0.872 0.965 -0.285 
0.871 0.965 -0.286 
0.871 0.965 -0.287 
0.868 0.962 -0.287 
0.868 0.962 -0.287 
0.862 0.955 -0.286 
0.873 0.966 -0.29 
0.873 0.966 -0.291 
0.869 0.961 -0.291 
0.857 0.95 -0.287 
0.868 0.961 -0.292 
0.871 0.964 -0.294 
0.876 0.966 -0.295 
0.865 0.957 -0.293 
0.879 0.969 -0.298 
0.892 0.982 -0.303 
0.875 0.965 -0.298 
0.879 0.97 -0.3 
0.883 0.973 -0.302 
0.88 0.969 -0.302 
0.884 0.972 -0.304 
0.88 0.967 -0.303 
0.896 0.983 -0.309 
0.889 0.975 -0.307 
0.89 0.977 -0.308 
0.843 0.93 -0.293 
0.889 0.974 -0.308 
0.894 0.98 -0.311 
0.892 0.977 -0.311 
0.881 0.965 -0.307 
0.886 0.969 -0.309 
0.89 0.972 -0.311 
0.881 0.964 -0.309 
0.886 0.967 -0.31 
0.876 0.957 -0.308 
0.883 0.963 -0.31 
0.886 0.966 -0.312 
0.884 0.963 -0.312 
0.896 0.973 -0.316 
0.886 0.963 -0.313 
0.898 0.973 -0.317 
0.896 0.971 -0.317 
0.898 0.973 -0.318 
0.905 0.977 -0.32 
0.907 0.979 -0.321 
0.919 0.989 -0.325 
2.309 2.308 -0.805 
-0.03 0.088 0 
2.372 2.363 -0.827 
2.38 2.368 -0.83 
2.376 2.361 -0.829 
2.399 2.381 -0.837 
2.397 2.377 -0.837 
-0.03 0.088 0 
-0.03 0.088 0 
-0.03 0.088 0 
-0.03 0.088 0 
-0.03 0.088 0 
-0.03 0.088 0 
2.354 2.318 -0.823 
2.362 2.321 -0.825 
2.372 2.328 -0.829 
2.374 2.327 -0.829 
2.375 2.325 -0.83 
2.372 2.319 -0.828 
2.372 2.317 -0.828 
2.377 2.317 -0.829 
2.38 2.316 -0.83 
2.372 2.306 -0.826 
2.385 2.316 -0.831 
2.38 2.307 -0.828 
2.384 2.307 -0.829 
2.384 2.305 -0.829 
2.385 2.302 -0.828 
2.397 2.31 -0.832 
2.393 2.302 -0.829 
2.395 2.301 -0.83 
2.398 2.3 -0.83 
2.398 2.297 -0.829 
2.404 2.299 -0.83 
2.396 2.288 -0.826 
2.395 2.284 -0.825 
2.396 2.281 -0.824 
2.39 2.272 -0.821 
2.392 2.27 -0.821 
2.394 2.268 -0.82 
2.39 2.261 -0.818 
2.395 2.26 -0.818 
2.395 2.257 -0.817 
2.398 2.256 -0.817 
2.39 2.245 -0.812 
2.389 2.241 -0.811 
2.363 2.213 -0.801 
2.377 2.223 -0.804 
2.341 2.187 -0.79 
2.511 2.333 -0.845 
2.462 2.285 -0.827 
2.475 2.293 -0.83 
2.51 2.319 -0.839 
1.961 1.833 -0.656 
1.928 1.801 -0.644 
1.914 1.785 -0.638 
1.895 1.766 -0.631 
1.878 1.748 -0.623 
1.875 1.742 -0.621 
1.872 1.735 -0.618 
1.862 1.724 -0.614 
1.867 1.726 -0.614 
1.864 1.719 -0.611 
1.866 1.718 -0.61 
1.872 1.719 -0.61 
1.872 1.716 -0.608 
1.874 1.715 -0.607 
1.883 1.719 -0.608 
1.891 1.722 -0.609 
1.905 1.73 -0.611 
1.933 1.751 -0.618 
1.973 1.781 -0.629 
2.046 1.84 -0.651 
2.143 1.917 -0.678 
2.232 1.989 -0.703 
2.341 2.076 -0.735 
2.417 2.136 -0.756 
2.469 2.174 -0.769 
2.486 2.184 -0.771 
2.486 2.179 -0.768 
2.49 2.178 -0.767 
2.489 2.173 -0.763 
2.486 2.165 -0.76 
2.484 2.159 -0.756 
2.487 2.156 -0.754 
2.486 2.151 -0.75 
2.478 2.141 -0.745 
2.473 2.132 -0.741 
2.463 2.118 -0.734 
2.428 2.085 -0.721 
2.12 1.831 -0.628 
1.999 1.729 -0.59 
1.968 1.701 -0.578 
1.965 1.694 -0.574 
1.97 1.694 -0.573 
1.971 1.691 -0.571 
1.972 1.689 -0.569 
1.975 1.688 -0.567 
1.974 1.682 -0.563 
1.98 1.684 -0.562 
1.982 1.682 -0.56 
1.982 1.678 -0.557 
1.983 1.675 -0.554 
1.987 1.675 -0.552 
1.983 1.668 -0.549 
1.986 1.666 -0.546 
1.988 1.664 -0.544 
1.99 1.662 -0.541 
1.989 1.656 -0.538 
1.991 1.655 -0.535 
1.992 1.653 -0.533 
1.997 1.652 -0.531 
1.994 1.645 -0.527 
1.998 1.645 -0.525 
1.996 1.64 -0.521 
2 1.64 -0.519 
2.002 1.636 -0.516 
1.999 1.631 -0.512 
2.002 1.629 -0.51 
2.002 1.624 -0.505 
2.004 1.623 -0.503 
2.006 1.621 -0.5 
2.007 1.617 -0.497 
2.01 1.617 -0.495 
2.012 1.614 -0.492 
2.015 1.612 -0.489 
2.014 1.607 -0.485 
2.017 1.606 -0.482 
2.023 1.606 -0.48 
2.043 1.618 -0.482 
2.213 1.74 -0.517 
2.352 1.837 -0.545 
2.573 1.994 -0.592 
2.635 2.035 -0.601 
2.647 2.038 -0.598 
2.649 2.035 -0.594 
2.65 2.03 -0.59 
2.654 2.028 -0.586 
2.671 2.036 -0.584 
2.689 2.043 -0.583 
2.693 2.042 -0.579 
2.691 2.036 -0.574 
2.603 1.968 -0.55 
2.493 1.885 -0.522 
2.393 1.809 -0.497 
2.304 1.742 -0.475 
2.082 1.58 -0.426 
2.081 1.576 -0.421 
2.173 1.636 -0.435 
2.382 1.779 -0.472 
2.507 1.863 -0.492 
2.602 1.924 -0.505 
2.627 1.938 -0.505 
2.628 1.932 -0.5 
2.631 1.931 -0.496 
2.63 1.926 -0.49 
2.66 1.94 -0.49 
2.627 1.913 -0.479 
2.518 1.834 -0.454 
2.432 1.771 -0.434 
2.349 1.71 -0.415 
2.307 1.678 -0.403 
2.259 1.641 -0.39 
-0.03 0.088 0 
-0.03 0.088 0 
2.007 1.458 -0.334 
-0.03 0.088 0 
1.982 1.435 -0.322 
1.964 1.42 -0.315 
1.955 1.41 -0.31 
1.947 1.402 -0.305 
1.945 1.397 -0.3 
1.944 1.393 -0.296 
1.952 1.396 -0.293 
1.964 1.4 -0.291 
1.974 1.402 -0.288 
1.983 1.406 -0.285 
1.997 1.411 -0.283 
2.015 1.419 -0.281 
2.043 1.434 -0.282 
2.065 1.446 -0.28 
2.085 1.455 -0.278 
2.09 1.454 -0.275 
2.119 1.47 -0.274 
2.321 1.595 -0.295 
2.374 1.626 -0.296 
2.388 1.631 -0.293 
2.396 1.632 -0.289 
2.395 1.628 -0.283 
2.4 1.626 -0.279 
2.395 1.62 -0.273 
2.4 1.619 -0.268 
2.404 1.618 -0.264 
2.401 1.612 -0.258 
2.402 1.609 -0.252 
2.409 1.609 -0.248 
2.423 1.614 -0.245 
2.45 1.627 -0.242 
2.717 1.788 -0.262 
2.851 1.867 -0.269 
3.613 2.333 -0.333 
4.239 2.711 -0.38 
4.083 2.61 -0.357 
4.559 2.894 -0.389 
4.551 2.882 -0.378 
4.533 2.865 -0.367 
4.529 2.856 -0.357 
4.513 2.839 -0.346 
4.535 2.845 -0.337 
4.539 2.841 -0.328 
4.549 2.84 -0.319 
4.541 2.829 -0.308 
4.544 2.825 -0.298 
4.566 2.83 -0.29 
4.594 2.841 -0.281 
4.604 2.84 -0.273 
4.624 2.845 -0.264 
4.626 2.839 -0.254 
4.648 2.846 -0.244 
4.664 2.849 -0.235 
4.667 2.844 -0.225 
4.661 2.834 -0.214 
4.653 2.823 -0.204 
4.662 2.822 -0.194 
4.688 2.83 -0.184 
4.696 2.828 -0.174 
4.694 2.821 -0.164 
4.694 2.814 -0.154 
4.717 2.822 -0.144 
4.696 2.804 -0.133 
4.701 2.8 -0.123 
4.687 2.786 -0.112 
4.667 2.768 -0.101 
4.684 2.772 -0.091 
4.782 2.822 -0.082 
4.724 2.782 -0.071 
5.138 3.011 -0.066 
5.14 3.005 -0.055 
5.145 3.001 -0.044 
5.155 3 -0.032 
5.151 2.991 -0.021 
5.137 2.977 -0.011 
5.157 2.981 0 
5.148 2.97 0.011 
5.158 2.969 0.023 
5.153 2.96 0.034 
5.18 2.969 0.046 
5.177 2.962 0.057 
5.186 2.96 0.069 
5.189 2.956 0.08 
5.176 2.942 0.091 
5.193 2.945 0.103 
5.208 2.947 0.115 
5.183 2.928 0.126 
5.185 2.922 0.137 
5.186 2.917 0.148 
5.183 2.909 0.159 
5.166 2.895 0.17 
5.095 2.851 0.18 
7.873 4.338 0.295 
7.863 4.324 0.311 
7.878 4.324 0.329 
7.868 4.31 0.346 
7.868 4.302 0.363 
7.868 4.292 0.38 
7.88 4.291 0.398 
7.885 4.285 0.415 
7.891 4.28 0.432 
7.887 4.27 0.449 
7.914 4.276 0.468 
7.905 4.262 0.484 
7.804 4.202 0.494 
10.291 5.497 0.674 
10.043 5.357 0.679 
9.984 5.316 0.697 
9.901 5.263 0.713 
9.937 5.272 0.737 
10.006 5.298 0.762 
10.138 5.357 0.795 
10.355 5.459 0.834 
10.163 5.351 0.84 
9.951 5.232 0.844 
9.915 5.204 0.862 
9.797 5.135 0.872 
9.798 5.126 0.893 
9.841 5.139 0.918 
9.954 5.188 0.95 
10.178 5.293 0.992 
10.211 5.302 1.016 
10.113 5.243 1.028 
10.022 5.188 1.04 
10.128 5.233 1.072 
10.189 5.255 1.1 
10.287 5.296 1.132 
10.387 5.338 1.165 
10.373 5.322 1.185 
10.225 5.24 1.189 
10.163 5.201 1.203 
10.294 5.258 1.24 
10.401 5.303 1.275 
10.373 5.282 1.293 
10.255 5.215 1.3 
10.298 5.228 1.326 
10.402 5.272 1.361 
10.426 5.276 1.385 
10.415 5.263 1.405 
10.421 5.259 1.427 
10.419 5.25 1.448 
10.418 5.242 1.468 
10.244 5.15 1.466 
10.022 5.034 1.453 
9.982 5.007 1.468 
9.971 4.995 1.487 
9.976 4.991 1.507 
10.03 5.012 1.535 
10.373 5.172 1.608 
10.438 5.197 1.639 
10.44 5.192 1.66 
10.437 5.184 1.68 
10.454 5.186 1.703 
10.438 5.172 1.721 
10.439 5.166 1.742 
10.451 5.166 1.764 
10.442 5.156 1.783 
10.446 5.153 1.804 
10.445 5.146 1.824 
10.444 5.14 1.844 
10.444 5.134 1.864 
10.436 5.125 1.883 
10.446 5.125 1.905 
10.441 5.117 1.923 
10.427 5.105 1.941 
10.387 5.082 1.953 
10.334 5.051 1.962 
10.315 5.037 1.978 
10.351 5.05 2.005 
10.345 5.042 2.023 
10.315 5.024 2.037 
10.279 5.002 2.049 
10.239 4.978 2.061 
10.223 4.967 2.076 
10.204 4.954 2.091 
10.35 5.019 2.14 
10.373 5.026 2.163 
10.406 5.037 2.189 
10.459 5.059 2.22 
10.452 5.052 2.237 
10.451 5.048 2.256 
10.444 5.042 2.273 
10.451 5.041 2.294 
10.457 5.041 2.314 
10.46 5.039 2.333 
10.45 5.031 2.349 
10.45 5.029 2.368 
10.453 5.027 2.387 
10.447 5.021 2.404 
10.447 5.019 2.422 
10.445 5.015 2.44 
10.45 5.015 2.459 
10.451 5.013 2.477 
10.444 5.008 2.493 
10.446 5.007 2.512 
10.436 5 2.527 
10.371 4.967 2.528 
10.277 4.921 2.522 
10.111 4.841 2.499 
9.989 4.783 2.486 
9.867 4.725 2.471 
9.735 4.661 2.455 
9.609 4.601 2.439 
9.503 4.549 2.427 
9.39 4.496 2.414 
9.297 4.452 2.405 
9.191 4.401 2.393 
9.08 4.349 2.378 
8.981 4.302 2.366 
8.917 4.271 2.364 
8.821 4.226 2.352 
8.741 4.188 2.344 
8.643 4.142 2.332 
8.559 4.103 2.323 
8.48 4.065 2.314 
8.398 4.027 2.305 
8.326 3.993 2.297 
8.259 3.962 2.291 
8.18 3.925 2.283 
8.109 3.893 2.275 
8.04 3.86 2.267 
7.984 3.834 2.263 
7.885 3.789 2.247 
7.801 3.75 2.234 
7.753 3.728 2.231 
7.697 3.702 2.225 
7.631 3.672 2.218 
7.562 3.641 2.209 
7.503 3.614 2.202 
7.444 3.587 2.195 
7.393 3.564 2.191 
7.327 3.534 2.181 
7.271 3.509 2.174 
7.221 3.487 2.169 
7.172 3.464 2.164 
7.103 3.434 2.153 
7.062 3.416 2.149 
6.998 3.387 2.139 
6.951 3.366 2.133 
6.906 3.347 2.129 
6.862 3.327 2.124 
6.811 3.305 2.117 
6.772 3.288 2.114 
6.725 3.268 2.107 
6.672 3.244 2.099 
6.625 3.224 2.093 
6.579 3.203 2.086 
6.533 3.184 2.079 
6.492 3.166 2.073 
6.433 3.14 2.062 
6.395 3.124 2.058 
6.377 3.118 2.06 
6.36 3.112 2.061 
6.322 3.096 2.056 
6.292 3.083 2.053 
6.269 3.074 2.052 
6.249 3.067 2.053 
6.232 3.061 2.054 
6.196 3.046 2.049 
6.168 3.035 2.046 
6.151 3.03 2.046 
6.11 3.013 2.04 
6.074 2.998 2.033 
6.052 2.99 2.032 
6.018 2.976 2.027 
5.986 2.963 2.022 
5.961 2.953 2.019 
5.932 2.942 2.015 
5.894 2.926 2.007 
5.873 2.919 2.007 
5.845 2.908 2.002 
5.844 2.91 2.007 
5.805 2.895 1.999 
5.789 2.889 1.998 
5.771 2.883 1.997 
5.745 2.874 1.993 
5.733 2.87 1.993 
5.713 2.863 1.991 
5.701 2.861 1.992 
5.691 2.859 1.992 
5.666 2.849 1.988 
5.661 2.849 1.99 
5.647 2.846 1.99 
5.626 2.839 1.988 
5.614 2.836 1.987 
5.603 2.833 1.987 
5.596 2.833 1.989 
5.575 2.826 1.985 
5.564 2.823 1.984 
5.538 2.815 1.979 
5.534 2.816 1.981 
5.516 2.81 1.978 
5.508 2.809 1.978 
5.493 2.805 1.976 
5.484 2.804 1.976 
5.471 2.8 1.974 
5.464 2.801 1.975 
5.432 2.788 1.966 
5.43 2.79 1.968 
5.424 2.79 1.968 
5.422 2.793 1.97 
5.41 2.791 1.968 
5.405 2.791 1.968 
5.395 2.79 1.967 
5.381 2.786 1.965 
5.361 2.78 1.961 
5.335 2.77 1.953 
5.336 2.774 1.955 
5.332 2.775 1.955 
5.315 2.77 1.951 
5.324 2.779 1.956 
5.319 2.779 1.956 
5.321 2.784 1.958 
5.312 2.783 1.956 
5.323 2.792 1.962 
5.313 2.791 1.96 
5.296 2.786 1.954 
5.299 2.791 1.957 
5.296 2.793 1.957 
5.301 2.799 1.96 
5.291 2.798 1.957 
5.28 2.796 1.954 
5.286 2.803 1.957 
5.278 2.802 1.954 
5.28 2.807 1.955 
5.281 2.811 1.956 
5.291 2.82 1.96 
5.274 2.815 1.954 
5.276 2.819 1.955 
5.276 2.824 1.955 
5.29 2.834 1.961 
5.29 2.839 1.96 
5.288 2.841 1.959 
5.281 2.842 1.957 
5.282 2.846 1.957 
5.281 2.849 1.956 
5.286 2.855 1.957 
5.288 2.86 1.957 
5.303 2.872 1.963 
5.304 2.876 1.962 
5.31 2.884 1.963 
5.309 2.887 1.962 
5.317 2.895 1.964 
5.329 2.905 1.967 
5.34 2.915 1.97 
5.344 2.921 1.97 
5.348 2.927 1.97 
5.36 2.937 1.973 
5.365 2.943 1.973 
5.374 2.952 1.975 
5.377 2.957 1.974 
5.394 2.971 1.978 
5.397 2.977 1.977 
5.405 2.985 1.978 
5.417 2.994 1.98 
5.423 3.002 1.98 
5.428 3.008 1.979 
5.44 3.019 1.982 
5.446 3.026 1.981 
5.453 3.033 1.981 
5.471 3.047 1.985 
5.483 3.057 1.986 
5.498 3.069 1.989 
5.495 3.072 1.985 
5.53 3.095 1.995 
5.539 3.104 1.994 
5.559 3.118 1.998 
5.562 3.124 1.996 
5.589 3.143 2.002 
5.602 3.154 2.003 
5.618 3.166 2.005 
5.629 3.176 2.005 
5.642 3.187 2.005 
5.667 3.205 2.01 
5.688 3.221 2.013 
5.7 3.231 2.013 
5.717 3.244 2.015 
5.734 3.258 2.016 
5.763 3.278 2.022 
5.805 3.306 2.032 
5.816 3.315 2.03 
5.846 3.336 2.037 
5.854 3.344 2.035 
5.88 3.362 2.038 
5.889 3.371 2.036 
5.924 3.395 2.042 
5.937 3.406 2.04 
5.975 3.431 2.048 
5.987 3.441 2.046 
6.022 3.465 2.053 
6.048 3.483 2.056 
6.077 3.504 2.059 
6.11 3.525 2.065 
6.133 3.543 2.066 
6.164 3.563 2.069 
6.208 3.592 2.077 
6.24 3.614 2.081 
6.28 3.64 2.087 
6.31 3.661 2.09 
6.343 3.684 2.094 
6.376 3.706 2.098 
6.417 3.734 2.103 
6.445 3.753 2.104 
6.485 3.779 2.109 
6.528 3.808 2.116 
6.571 3.836 2.122 
6.616 3.865 2.128 
6.657 3.893 2.133 
6.71 3.927 2.14 
6.76 3.959 2.148 
6.81 3.991 2.155 
6.842 4.012 2.156 
6.893 4.046 2.163 
6.943 4.078 2.169 
7.009 4.12 2.18 
7.055 4.148 2.184 
7.101 4.178 2.189 
7.161 4.218 2.198 
7.22 4.255 2.204 
7.298 4.303 2.218 
7.345 4.334 2.222 
7.401 4.369 2.228 
7.449 4.4 2.23 
7.528 4.449 2.243 
7.596 4.491 2.252 
7.656 4.529 2.258 
7.739 4.582 2.27 
7.802 4.621 2.276 
7.871 4.665 2.285 
7.94 4.708 2.292 
8.009 4.752 2.299 
8.095 4.805 2.311 
8.166 4.85 2.318 
8.27 4.913 2.333 
8.34 4.957 2.339 
8.426 5.01 2.35 
8.511 5.064 2.359 
8.602 5.12 2.37 
8.706 5.183 2.384 
8.798 5.241 2.393 
8.878 5.29 2.4 
8.981 5.353 2.413 
9.093 5.422 2.427 
9.228 5.505 2.447 
9.34 5.573 2.459 
9.476 5.656 2.479 
9.626 5.747 2.5 
9.755 5.825 2.515 
9.814 5.863 2.513 
9.848 5.885 2.504 
9.849 5.889 2.486 
9.853 5.894 2.469 
9.854 5.897 2.452 
9.85 5.898 2.432 
9.846 5.899 2.413 
9.843 5.899 2.393 
9.856 5.909 2.378 
9.845 5.905 2.356 
9.85 5.91 2.339 
9.856 5.916 2.321 
9.859 5.919 2.302 
9.85 5.916 2.281 
9.856 5.922 2.263 
9.69 5.825 2.206 
9.584 5.764 2.163 
9.541 5.74 2.134 
9.459 5.695 2.098 
9.433 5.681 2.073 
9.445 5.689 2.056 
9.46 5.699 2.04 
9.455 5.697 2.019 
9.451 5.696 1.999 
9.46 5.702 1.982 
9.459 5.703 1.962 
9.456 5.702 1.941 
9.444 5.696 1.919 
9.452 5.701 1.901 
9.456 5.705 1.882 
9.444 5.698 1.859 
9.45 5.702 1.84 
9.476 5.719 1.825 
9.468 5.714 1.803 
9.47 5.716 1.783 
9.426 5.69 1.755 
9.446 5.702 1.738 
9.458 5.71 1.72 
9.456 5.708 1.699 
9.476 5.72 1.682 
9.471 5.717 1.66 
9.469 5.716 1.639 
9.478 5.721 1.62 
9.504 5.736 1.602 
9.505 5.736 1.581 
9.493 5.729 1.559 
9.45 5.703 1.531 
9.406 5.676 1.502 
9.397 5.671 1.48 
9.45 5.701 1.467 
9.517 5.739 1.455 
9.607 5.791 1.447 
9.913 5.973 1.471 
9.913 5.971 1.448 
9.934 5.983 1.428 
9.911 5.967 1.402 
9.874 5.944 1.374 
9.802 5.901 1.341 
9.671 5.822 1.301 
9.659 5.812 1.277 
9.642 5.802 1.252 
9.615 5.784 1.226 
9.582 5.763 1.2 
9.572 5.755 1.176 
9.553 5.742 1.152 
9.508 5.714 1.123 
9.432 5.666 1.093 
9.397 5.644 1.067 
9.403 5.645 1.045 
9.4 5.641 1.021 
9.411 5.646 1.001 
9.398 5.635 0.977 
9.409 5.639 0.957 
9.432 5.65 0.937 
9.459 5.664 0.917 
9.461 5.662 0.894 
9.458 5.659 0.872 
9.559 5.714 0.858 
9.601 5.737 0.839 
9.866 5.889 0.838 
9.855 5.879 0.814 
9.732 5.804 0.781 
9.668 5.764 0.752 
9.406 5.607 0.709 
7.462 4.468 0.544 
7.518 4.497 0.531 
7.538 4.507 0.514 
7.514 4.49 0.494 
7.518 4.49 0.476 
7.51 4.482 0.458 
7.518 4.484 0.44 
7.526 4.485 0.423 
7.523 4.481 0.404 
7.535 4.485 0.387 
7.529 4.478 0.369 
7.53 4.475 0.35 
7.535 4.476 0.332 
7.537 4.474 0.314 
7.538 4.47 0.296 
5.067 3.038 0.187 
5.078 3.041 0.175 
5.095 3.048 0.164 
5.106 3.052 0.152 
5.103 3.048 0.139 
5.114 3.053 0.127 
5.114 3.051 0.115 
5.115 3.049 0.102 
5.123 3.05 0.089 
5.113 3.042 0.077 
5.113 3.04 0.065 
5.116 3.04 0.053 
5.133 3.046 0.04 
5.125 3.039 0.027 
5.13 3.039 0.015 
5.125 3.033 0.002 
5.143 3.04 -0.009 
5.136 3.034 -0.02 
5.114 3.018 -0.032 
4.852 2.867 -0.042 
4.664 2.757 -0.052 
4.782 2.82 -0.065 
4.788 2.822 -0.076 
4.734 2.788 -0.087 
4.685 2.758 -0.097 
4.7 2.763 -0.109 
4.728 2.775 -0.121 
4.759 2.79 -0.133 
4.772 2.796 -0.145 
4.793 2.804 -0.157 
4.771 2.788 -0.167 
4.733 2.764 -0.178 
-0.03 0.088 0 
2.231 1.355 -0.094 
2.252 1.366 -0.1 
2.26 1.368 -0.106 
2.264 1.369 -0.112 
2.267 1.369 -0.117 
2.268 1.368 -0.123 
2.268 1.367 -0.128 
2.266 1.364 -0.133 
2.273 1.367 -0.139 
2.274 1.365 -0.145 
2.271 1.362 -0.15 
2.271 1.361 -0.155 
2.272 1.36 -0.161 
2.28 1.361 -0.166 
2.277 1.358 -0.171 
2.281 1.359 -0.177 
2.283 1.359 -0.183 
2.284 1.357 -0.188 
2.28 1.354 -0.193 
2.285 1.354 -0.198 
2.284 1.353 -0.204 
2.288 1.352 -0.21 
2.288 1.352 -0.216 
2.289 1.349 -0.221 
2.29 1.348 -0.226 
2.29 1.347 -0.232 
2.293 1.346 -0.237 
2.293 1.344 -0.242 
2.294 1.343 -0.247 
2.295 1.342 -0.252 
2.296 1.34 -0.258 
2.297 1.339 -0.263 
2.298 1.338 -0.269 
2.301 1.337 -0.274 
2.303 1.336 -0.279 
2.302 1.334 -0.284 
2.303 1.332 -0.289 
2.304 1.331 -0.295 
2.305 1.33 -0.3 
2.302 1.326 -0.305 
2.306 1.326 -0.31 
2.318 1.331 -0.317 
2.311 1.324 -0.321 
2.315 1.324 -0.326 
2.32 1.325 -0.332 
2.318 1.323 -0.337 
2.319 1.321 -0.341 
2.324 1.321 -0.347 
2.325 1.32 -0.352 
2.327 1.318 -0.357 
2.327 1.316 -0.362 
2.328 1.314 -0.367 
2.328 1.312 -0.372 
2.331 1.312 -0.377 
2.332 1.31 -0.382 
2.334 1.309 -0.387 
2.335 1.307 -0.392 
2.337 1.306 -0.397 
2.322 1.296 -0.4 
2.359 1.313 -0.411 
2.31 1.286 -0.407 
2.338 1.299 -0.416 
2.416 1.335 -0.435 
2.487 1.37 -0.452 
2.487 1.367 -0.457 
2.493 1.367 -0.463 
2.486 1.362 -0.466 
2.492 1.362 -0.472 
2.478 1.353 -0.474 
2.493 1.358 -0.482 
2.492 1.355 -0.486 
2.428 1.32 -0.479 
2.481 1.344 -0.494 
2.496 1.35 -0.501 
2.496 1.347 -0.505 
2.421 1.308 -0.496 
2.443 1.316 -0.504 
2.419 1.302 -0.504 
2.395 1.288 -0.504 
2.415 1.295 -0.512 
2.404 1.287 -0.514 
2.369 1.267 -0.51 
2.39 1.275 -0.52 
2.411 1.283 -0.528 
2.417 1.283 -0.534 
2.313 1.23 -0.516 
2.329 1.236 -0.523 
2.34 1.239 -0.529 
2.342 1.237 -0.534 
2.346 1.237 -0.539 
2.347 1.235 -0.543 
2.349 1.234 -0.548 
2.35 1.231 -0.551 
2.351 1.229 -0.556 
2.347 1.224 -0.558 
2.344 1.221 -0.562 
2.35 1.222 -0.567 
2.351 1.219 -0.571 
2.349 1.215 -0.574 
2.352 1.215 -0.579 
2.357 1.214 -0.583 
2.361 1.214 -0.588 
2.362 1.213 -0.592 
2.364 1.21 -0.596 
2.367 1.209 -0.6 
2.367 1.207 -0.604 
2.366 1.204 -0.607 
2.366 1.201 -0.611 
2.364 1.198 -0.614 
2.367 1.197 -0.618 
2.366 1.194 -0.621 
2.368 1.192 -0.625 
2.369 1.19 -0.629 
2.368 1.187 -0.632 
2.368 1.185 -0.635 
2.354 1.175 -0.634 
2.346 1.17 -0.635 
2.336 1.163 -0.636 
2.33 1.157 -0.637 
2.321 1.151 -0.638 
2.314 1.144 -0.639 
2.314 1.142 -0.642 
2.302 1.134 -0.642 
2.297 1.13 -0.643 
2.29 1.124 -0.644 
2.28 1.117 -0.643 
2.27 1.11 -0.643 
2.263 1.105 -0.644 
2.261 1.101 -0.647 
2.258 1.097 -0.648 
2.244 1.089 -0.647 
2.236 1.083 -0.647 
2.233 1.079 -0.649 
2.224 1.073 -0.649 
2.224 1.07 -0.651 
2.221 1.067 -0.653 
2.217 1.063 -0.654 
2.213 1.059 -0.655 
2.208 1.055 -0.657 
2.203 1.049 -0.657 
2.196 1.044 -0.657 
2.192 1.041 -0.658 
2.185 1.035 -0.658 
2.18 1.03 -0.659 
2.173 1.025 -0.659 
2.169 1.021 -0.66 
2.168 1.019 -0.662 
2.161 1.013 -0.661 
2.155 1.008 -0.662 
2.156 1.007 -0.664 
2.152 1.003 -0.665 
2.152 1 -0.666 
2.153 0.999 -0.668 
2.152 0.995 -0.67 
2.154 0.995 -0.672 
2.153 0.991 -0.674 
2.156 0.991 -0.677 
2.159 0.99 -0.679 
2.16 0.988 -0.681 
2.162 0.987 -0.683 
2.165 0.986 -0.686 
2.169 0.985 -0.688 
2.188 0.991 -0.696 
2.202 0.994 -0.701 
2.205 0.993 -0.704 
2.206 0.991 -0.706 
2.192 0.983 -0.703 
2.181 0.977 -0.701 
2.156 0.964 -0.694 
2.144 0.958 -0.692 
2.147 0.957 -0.694 
2.146 0.954 -0.695 
2.154 0.955 -0.698 
2.155 0.953 -0.7 
2.159 0.954 -0.702 
2.159 0.952 -0.704 
2.164 0.951 -0.706 
2.17 0.951 -0.709 
2.183 0.954 -0.714 
2.183 0.952 -0.715 
2.22 0.965 -0.728 
2.22 0.962 -0.729 
2.234 0.966 -0.734 
2.224 0.96 -0.732 
2.234 0.961 -0.736 
2.197 0.946 -0.725 
2.218 0.951 -0.732 
2.215 0.948 -0.732 
2.227 0.95 -0.736 
2.227 0.949 -0.737 
2.227 0.947 -0.738 
2.234 0.947 -0.741 
2.233 0.944 -0.741 
2.233 0.943 -0.741 
2.235 0.942 -0.743 
2.233 0.938 -0.742 
2.232 0.937 -0.742 
2.235 0.936 -0.744 
2.237 0.935 -0.745 
2.239 0.934 -0.746 
2.241 0.933 -0.747 
2.241 0.93 -0.747 
2.243 0.929 -0.748 
2.239 0.926 -0.747 
2.237 0.924 -0.747 
2.241 0.924 -0.748 
2.242 0.922 -0.748 
2.245 0.921 -0.749 
2.242 0.918 -0.749 
2.243 0.917 -0.749 
2.242 0.915 -0.749 
2.243 0.914 -0.749 
2.243 0.912 -0.749 
2.244 0.91 -0.749 
2.245 0.909 -0.749 
2.244 0.907 -0.749 
2.243 0.905 -0.748 
2.245 0.904 -0.749 
2.251 0.905 -0.75 
2.246 0.901 -0.748 
2.246 0.9 -0.748 
2.252 0.9 -0.75 
2.253 0.899 -0.75 
2.249 0.896 -0.748 
2.249 0.895 -0.748 
2.247 0.893 -0.747 
2.25 0.892 -0.747 
2.251 0.891 -0.746 
2.243 0.887 -0.743 
2.241 0.884 -0.742 
2.237 0.882 -0.74 
2.239 0.881 -0.74 
2.231 0.877 -0.737 
2.234 0.877 -0.737 
2.23 0.875 -0.735 
2.223 0.871 -0.733 
2.218 0.868 -0.73 
2.219 0.867 -0.729 
2.216 0.864 -0.728 
2.217 0.864 -0.727 
2.209 0.859 -0.724 
2.205 0.857 -0.721 
2.195 0.852 -0.717 
2.242 0.868 -0.732 
2.236 0.864 -0.729 
2.259 0.871 -0.735 
2.256 0.869 -0.733 
2.254 0.868 -0.731 
2.262 0.869 -0.733 
2.261 0.868 -0.731 
2.256 0.865 -0.728 
2.237 0.858 -0.721 
-0.03 0.088 0 
-0.03 0.088 0 
-0.03 0.088 0 
-0.03 0.088 0 
1.914 0.744 -0.613 
1.824 0.713 -0.584 
1.689 0.667 -0.54 
1.569 0.626 -0.501 
1.504 0.603 -0.48 
1.464 0.589 -0.466 
1.432 0.579 -0.456 
1.422 0.575 -0.451 
1.393 0.564 -0.442 
1.374 0.558 -0.435 
1.374 0.558 -0.434 
1.354 0.55 -0.427 
1.37 0.555 -0.431 
1.368 0.554 -0.429 
1.361 0.552 -0.426 
1.37 0.555 -0.428 
1.358 0.55 -0.423 
1.359 0.55 -0.422 
1.362 0.551 -0.422 
1.357 0.549 -0.419 
1.359 0.549 -0.419 
1.359 0.549 -0.418 
1.358 0.549 -0.416 
1.36 0.55 -0.416 
1.357 0.548 -0.414 
1.354 0.547 -0.412 
1.361 0.549 -0.412 
1.349 0.546 -0.408 
1.349 0.545 -0.407 
1.35 0.545 -0.406 
1.349 0.545 -0.404 
1.346 0.544 -0.402 
1.349 0.545 -0.402 
1.348 0.545 -0.4 
1.344 0.543 -0.398 
1.354 0.546 -0.4 
1.349 0.545 -0.397 
1.344 0.543 -0.394 
1.354 0.546 -0.396 
1.35 0.545 -0.393 
1.338 0.542 -0.389 
1.346 0.544 -0.39 
1.346 0.544 -0.388 
1.347 0.545 -0.387 
1.347 0.546 -0.386 
1.352 0.548 -0.386 
1.347 0.546 -0.383 
1.343 0.545 -0.381 
1.346 0.545 -0.38 
1.352 0.548 -0.38 
1.351 0.548 -0.378 
1.357 0.55 -0.378 
1.357 0.55 -0.377 
1.349 0.548 -0.373 
1.355 0.551 -0.374 
1.357 0.552 -0.373 
1.354 0.551 -0.37 
1.35 0.55 -0.368 
1.348 0.55 -0.366 
1.348 0.55 -0.364 
1.346 0.55 -0.362 
1.358 0.554 -0.364 
1.35 0.552 -0.36 
1.362 0.557 -0.362 
1.357 0.555 -0.359 
1.352 0.554 -0.356 
1.354 0.555 -0.355 
1.361 0.558 -0.355 
1.355 0.556 -0.352 
1.362 0.56 -0.352 
1.363 0.561 -0.351 
1.356 0.559 -0.347 
1.368 0.564 -0.349 
1.366 0.564 -0.347 
1.367 0.564 -0.345 
1.376 0.568 -0.346 
1.365 0.565 -0.341 
1.364 0.566 -0.339 
1.37 0.568 -0.339 
1.375 0.571 -0.338 
1.383 0.575 -0.339 
1.376 0.573 -0.335 
1.378 0.574 -0.334 
1.378 0.575 -0.332 
1.387 0.579 -0.333 
1.375 0.576 -0.328 
1.389 0.581 -0.329 
1.385 0.581 -0.327 
1.392 0.584 -0.326 
1.394 0.586 -0.325 
1.395 0.587 -0.323 
1.414 0.595 -0.326 
1.411 0.596 -0.323 
1.446 0.608 -0.329 
2.467 0.971 -0.554 
-0.03 0.088 0 
-0.03 0.088 0 
2.714 1.063 -0.598 
2.703 1.061 -0.592 
2.735 1.075 -0.595 
2.753 1.084 -0.596 
2.764 1.09 -0.594 
2.781 1.098 -0.594 
2.778 1.1 -0.59 
2.775 1.101 -0.585 
2.784 1.107 -0.583 
2.789 1.111 -0.58 
2.796 1.117 -0.578 
2.798 1.12 -0.576 
2.798 1.122 -0.571 
2.795 1.124 -0.566 
2.787 1.123 -0.561 
2.793 1.129 -0.558 
2.787 1.129 -0.553 
2.785 1.131 -0.549 
2.782 1.132 -0.544 
2.782 1.135 -0.54 
2.781 1.138 -0.536 
2.78 1.139 -0.532 
2.779 1.142 -0.528 
2.775 1.144 -0.523 
2.775 1.147 -0.519 
2.773 1.149 -0.515 
2.772 1.152 -0.51 
2.767 1.153 -0.505 
2.769 1.157 -0.501 
2.761 1.157 -0.497 
2.762 1.16 -0.493 
2.754 1.16 -0.488 
2.755 1.164 -0.484 
2.749 1.165 -0.479 
2.747 1.167 -0.475 
2.739 1.167 -0.469 
2.734 1.169 -0.465 
2.712 1.164 -0.457 
2.676 1.153 -0.447 
2.478 1.078 -0.411 
2.457 1.073 -0.403 
2.475 1.083 -0.403 
2.481 1.089 -0.4 
2.484 1.093 -0.397 
2.484 1.097 -0.393 
2.479 1.097 -0.389 
2.481 1.101 -0.385 
2.471 1.1 -0.38 
2.466 1.102 -0.376 
2.467 1.106 -0.372 
2.461 1.107 -0.368 
2.461 1.11 -0.364 
2.46 1.114 -0.36 
2.459 1.117 -0.356 
2.452 1.117 -0.352 
2.457 1.122 -0.349 
2.446 1.122 -0.343 
2.447 1.126 -0.34 
2.445 1.128 -0.336 
2.441 1.13 -0.332 
2.444 1.135 -0.328 
2.438 1.136 -0.324 
2.437 1.14 -0.32 
2.436 1.143 -0.316 
2.433 1.146 -0.312 
2.43 1.147 -0.308 
2.426 1.15 -0.304 
2.424 1.152 -0.3 
2.426 1.157 -0.297 
2.422 1.159 -0.293 
2.419 1.162 -0.289 
2.416 1.164 -0.285 
2.413 1.166 -0.281 
2.414 1.171 -0.277 
2.411 1.174 -0.273 
2.41 1.177 -0.269 
2.408 1.18 -0.265 
2.407 1.183 -0.261 
2.403 1.185 -0.257 
2.401 1.189 -0.252 
2.399 1.193 -0.25 
2.391 1.192 -0.245 
2.39 1.197 -0.241 
2.39 1.201 -0.238 
2.384 1.202 -0.233 
2.381 1.205 -0.229 
2.38 1.208 -0.226 
2.371 1.209 -0.221 
2.374 1.214 -0.218 
2.37 1.216 -0.214 
2.366 1.22 -0.21 
2.366 1.223 -0.206 
2.362 1.226 -0.202 
2.361 1.23 -0.199 
2.359 1.233 -0.195 
2.358 1.237 -0.191 
2.356 1.24 -0.187 
2.353 1.243 -0.183 
2.35 1.246 -0.18 
2.349 1.25 -0.176 
2.346 1.253 -0.172 
2.344 1.257 -0.168 
2.338 1.259 -0.164 
2.336 1.262 -0.16 
2.337 1.268 -0.157 
2.335 1.271 -0.153 
2.333 1.274 -0.149 
2.33 1.277 -0.146 
2.327 1.28 -0.142 
2.326 1.284 -0.138 
2.324 1.289 -0.134 
2.322 1.292 -0.131 
2.317 1.294 -0.127 
2.319 1.3 -0.123 
2.314 1.302 -0.12 
2.309 1.304 -0.116 
2.305 1.306 -0.112 
2.304 1.311 -0.109 
2.298 1.313 -0.105 
2.28 1.308 -0.1 
-0.03 0.088 0 
-0.03 0.088 0 
4.635 2.58 -0.182 
4.672 2.61 -0.176 
4.643 2.604 -0.168 
4.619 2.601 -0.161 
4.619 2.611 -0.153 
4.629 2.626 -0.147 
4.619 2.631 -0.14 
4.605 2.633 -0.132 
4.696 2.692 -0.127 
4.694 2.702 -0.12 
4.72 2.727 -0.114 
4.789 2.776 -0.108 
4.89 2.842 -0.103 
4.843 2.827 -0.094 
4.747 2.784 -0.085 
4.836 2.845 -0.079 
4.776 2.822 -0.071 
4.733 2.807 -0.064 
4.701 2.8 -0.056 
4.651 2.782 -0.049 
4.676 2.806 -0.042 
5.041 3.028 -0.038 
5.103 3.076 -0.03 
5.099 3.085 -0.023 
5.085 3.089 -0.016 
5.078 3.096 -0.009 
5.045 3.088 -0.002 
5.043 3.099 0.005 
5.054 3.117 0.012 
5.039 3.12 0.02 
5.035 3.129 0.027 
5.049 3.15 0.035 
5.022 3.146 0.042 
5.022 3.157 0.049 
5.035 3.178 0.057 
5.012 3.174 0.064 
4.994 3.176 0.071 
4.992 3.186 0.078 
4.992 3.199 0.085 
4.961 3.191 0.092 
4.954 3.199 0.099 
4.957 3.212 0.106 
4.883 3.178 0.111 
4.401 2.885 0.106 
4.519 2.971 0.116 
4.565 3.011 0.124 
4.64 3.071 0.132 
4.735 3.143 0.142 
4.818 3.208 0.151 
4.901 3.273 0.16 
-0.03 0.088 0 
2.803 1.932 0.099 
1.896 1.346 0.07 
1.847 1.319 0.071 
1.975 1.408 0.079 
2.068 1.474 0.085 
2.285 1.624 0.098 
2.463 1.747 0.108 
2.57 1.826 0.116 
-0.03 0.088 0 
2.861 2.033 0.137 
2.853 2.036 0.141 
-0.03 0.088 0 
-0.03 0.088 0 
-0.03 0.088 0 
2.674 1.943 0.147 
2.669 1.947 0.15 
2.668 1.953 0.154 
2.664 1.956 0.157 
2.659 1.96 0.16 
2.657 1.965 0.163 
2.654 1.97 0.167 
2.647 1.972 0.17 
2.641 1.975 0.173 
2.64 1.981 0.176 
2.637 1.986 0.179 
2.633 1.989 0.182 
2.633 1.996 0.186 
2.63 2 0.189 
2.625 2.005 0.192 
2.617 2.007 0.195 
2.593 1.995 0.196 
2.586 1.997 0.199 
2.579 1.999 0.201 
2.576 2.003 0.204 
2.562 2 0.206 
2.438 1.915 0.2 
2.172 1.723 0.181 
1.832 1.475 0.155 
1.736 1.409 0.149 
1.72 1.401 0.15 
1.707 1.397 0.151 
1.698 1.393 0.152 
1.686 1.39 0.153 
1.68 1.389 0.154 
1.668 1.385 0.155 
1.658 1.382 0.156 
1.639 1.372 0.156 
1.609 1.353 0.155 
1.564 1.322 0.153 
1.518 1.291 0.15 
1.501 1.282 0.151 
1.489 1.277 0.151 
1.478 1.272 0.152 
1.461 1.262 0.151 
1.442 1.252 0.151 
1.431 1.246 0.151 
1.415 1.237 0.151 
1.404 1.233 0.151 
1.393 1.228 0.152 
1.386 1.226 0.152 
1.36 1.209 0.151 
1.36 1.212 0.152 
1.347 1.206 0.152 
1.346 1.207 0.154 
1.344 1.21 0.155 
1.3 1.178 0.151 
1.306 1.186 0.153 
1.297 1.183 0.153 
1.263 1.158 0.15 
1.224 1.129 0.148 
1.195 1.108 0.145 
1.182 1.101 0.145 
1.18 1.102 0.146 
1.195 1.118 0.149 
1.182 1.11 0.148 
1.18 1.112 0.149 
1.176 1.112 0.15 
1.174 1.113 0.15 
1.165 1.109 0.15 
1.137 1.087 0.147 
1.131 1.086 0.148 
1.147 1.102 0.151 
1.138 1.097 0.15 
1.128 1.092 0.15 
1.12 1.088 0.15 
1.114 1.086 0.15 
1.095 1.073 0.148 
1.072 1.055 0.146 
1.053 1.041 0.144 
1.021 1.016 0.141 
1.011 1.008 0.14 
0.999 1.002 0.14 
1.002 1.007 0.14 
0.995 1.003 0.141 
0.995 1.005 0.142 
0.982 0.997 0.141 
0.979 0.996 0.141 
0.972 0.994 0.141 
0.974 0.997 0.141 
0.964 0.991 0.14 
0.976 1.005 0.143 
0.973 1.003 0.143 
0.957 0.992 0.141 
0.958 0.996 0.142 
0.948 0.988 0.141 
0.938 0.982 0.14 
0.936 0.982 0.14 
0.935 0.984 0.141 
0.922 0.973 0.139 
0.906 0.961 0.137 
0.894 0.953 0.136 
0.897 0.957 0.137 
0.886 0.949 0.136 
0.863 0.929 0.133 
0.857 0.926 0.132 
0.835 0.907 0.129 
0.816 0.892 0.127 
0.831 0.908 0.129 
0.816 0.895 0.127 
0.809 0.891 0.126 
0.794 0.878 0.125 
0.792 0.878 0.124 
0.792 0.88 0.125 
0.785 0.876 0.124 
0.784 0.877 0.124 
0.783 0.877 0.124 
0.775 0.872 0.123 
0.781 0.879 0.124 
0.772 0.872 0.123 
0.778 0.879 0.124 
0.775 0.878 0.124 
0.761 0.867 0.122 
0.756 0.864 0.122 
0.751 0.86 0.121 
0.757 0.867 0.122 
0.755 0.868 0.122 
0.75 0.864 0.121 
0.747 0.864 0.121 
0.74 0.857 0.121 
0.735 0.854 0.12 
0.736 0.856 0.12 
0.732 0.855 0.12 
0.728 0.851 0.119 
0.722 0.848 0.118 
0.727 0.854 0.119 
0.727 0.855 0.119 
0.717 0.847 0.118 
0.719 0.851 0.118 
0.718 0.852 0.118 
0.706 0.84 0.116 
0.704 0.839 0.116 
0.702 0.838 0.115 
0.697 0.835 0.115 
0.701 0.84 0.115 
0.694 0.834 0.114 
0.687 0.829 0.113 
0.687 0.829 0.113 
0.686 0.831 0.113 
0.683 0.828 0.112 
0.675 0.821 0.111 
0.664 0.811 0.109 
0.669 0.817 0.109 
0.666 0.814 0.109 
-0.03 0.088 0 
-0.03 0.088 0 
0.658 0.811 0.107 
-0.03 0.088 0 
-0.03 0.088 0 
-0.03 0.088 0 
-0.03 0.088 0 
-0.03 0.088 0 
-0.03 0.088 0 
-0.03 0.088 0 
-0.03 0.088 0 
-0.03 0.088 0 
-0.03 0.088 0 
-0.03 0.088 0 
-0.03 0.088 0 
-0.03 0.088 0 
-0.03 0.088 0 
-0.03 0.088 0 
-0.03 0.088 0 
-0.03 0.088 0 
-0.03 0.088 0 
-0.03 0.088 0 
-0.03 0.088 0 
-0.03 0.088 0 
-0.03 0.088 0 
-0.03 0.088 0 
-0.03 0.088 0 
-0.03 0.088 0 
-0.03 0.088 0 
-0.03 0.088 0 
-0.03 0.088 0 
-0.03 0.088 0 
-0.03 0.088 0 
-0.03 0.088 0 
-0.03 0.088 0 
-0.03 0.088 0 
-0.03 0.088 0 
-0.03 0.088 0 
-0.03 0.088 0 
-0.03 0.088 0 
-0.03 0.088 0 
-0.03 0.088 0 
-0.03 0.088 0 
-0.03 0.088 0 
-0.03 0.088 0 
-0.03 0.088 0 
-0.03 0.088 0 
-0.03 0.088 0 
-0.03 0.088 0 
-0.03 0.088 0 
-0.03 0.088 0 
-0.03 0.088 0 
-0.03 0.088 0 
-0.03 0.088 0 
-0.03 0.088 0 
-0.03 0.088 0 
-0.03 0.088 0 
-0.03 0.088 0 
-0.03 0.088 0 
-0.03 0.088 0 
-0.03 0.088 0 
-0.03 0.088 0 
-0.03 0.088 0 
-0.03 0.088 0 
-0.03 0.088 0 
-0.03 0.088 0 
-0.03 0.088 0 
-0.03 0.088 0 
-0.03 0.088 0 
-0.03 0.088 0 
-0.03 0.088 0 
-0.03 0.088 0 
-0.03 0.088 0 
-0.03 0.088 0 
-0.03 0.088 0 
-0.03 0.088 0 
-0.03 0.088 0 
-0.03 0.088 0 
-0.03 0.088 0 
-0.03 0.088 0 
-0.03 0.088 0 
-0.03 0.088 0 
-0.03 0.088 0 
-0.03 0.088 0 
-0.03 0.088 0 
-0.03 0.088 0 
-0.03 0.088 0 
-0.03 0.088 0 
-0.03 0.088 0 
-0.03 0.088 0 
-0.03 0.088 0 
-0.03 0.088 0 
-0.03 0.088 0 
-0.03 0.088 0 
-0.03 0.088 0 
-0.03 0.088 0 
-0.03 0.088 0 
-0.03 0.088 0 
-0.03 0.088 0 
-0.03 0.088 0 
-0.03 0.088 0 
-0.03 0.088 0 
-0.03 0.088 0 
-0.03 0.088 0 
-0.03 0.088 0 
-0.03 0.088 0 
-0.03 0.088 0 
-0.03 0.088 0 
-0.03 0.088 0 
-0.03 0.088 0 
-0.03 0.088 0 
-0.03 0.088 0 
-0.03 0.088 0 
-0.03 0.088 0 
-0.03 0.088 0 
-0.03 0.088 0 
-0.03 0.088 0 
-0.03 0.088 0 
-0.03 0.088 0 
-0.03 0.088 0 
-0.03 0.088 0 
-0.03 0.088 0 
0.658 0.815 0.048 
0.657 0.813 0.047 
0.66 0.815 0.047 
0.664 0.818 0.046 
0.665 0.818 0.046 
0.666 0.817 0.045 
0.67 0.821 0.045 
0.677 0.825 0.044 
0.678 0.826 0.044 
0.681 0.828 0.043 
0.688 0.834 0.043 
0.69 0.834 0.043 
0.699 0.843 0.043 
0.705 0.848 0.042 
0.706 0.847 0.042 
0.717 0.857 0.042 
0.728 0.868 0.042 
0.725 0.862 0.041 
0.738 0.875 0.041 
0.735 0.87 0.04 
0.735 0.868 0.039 
0.736 0.868 0.039 
0.741 0.871 0.038 
0.743 0.871 0.037 
0.742 0.869 0.037 
0.74 0.865 0.036 
0.752 0.875 0.035 
0.759 0.881 0.035 
0.756 0.876 0.034 
0.757 0.875 0.033 
0.76 0.876 0.033 
0.775 0.889 0.033 
0.77 0.883 0.032 
0.764 0.874 0.031 
0.76 0.869 0.03 
0.773 0.88 0.03 
0.775 0.88 0.029 
0.784 0.886 0.029 
0.802 0.902 0.029 
0.789 0.888 0.028 
0.797 0.894 0.027 
0.803 0.897 0.027 
0.806 0.898 0.026 
0.796 0.886 0.025 
0.809 0.897 0.025 
0.815 0.901 0.025 
0.821 0.904 0.024 
0.818 0.9 0.023 
0.839 0.918 0.023 
0.838 0.914 0.023 
0.856 0.929 0.023 
0.874 0.944 0.023 
0.901 0.968 0.023 
0.905 0.969 0.022 
0.906 0.967 0.021 
0.921 0.979 0.021 
0.917 0.972 0.02 
0.942 0.992 0.02 
0.94 0.989 0.02 
0.953 0.997 0.019 
0.952 0.995 0.018 
0.96 0.999 0.018 
0.961 0.997 0.017 
0.962 0.996 0.017 
0.975 1.006 0.016 
0.983 1.008 0.016 
0.984 1.007 0.015 
0.982 1.003 0.014 
0.995 1.011 0.014 
0.985 1 0.013 
1 1.011 0.012 
1.001 1.008 0.011 
1.001 1.006 0.01 
1.013 1.013 0.01 
1.034 1.029 0.01 
1.052 1.042 0.009 
1.088 1.071 0.009 
1.101 1.078 0.009 
1.119 1.091 0.008 
1.135 1.101 0.008 
1.134 1.097 0.007 
1.143 1.101 0.006 
1.142 1.097 0.006 
1.151 1.101 0.005 
1.141 1.09 0.005 
1.144 1.088 0.004 
1.174 1.11 0.004 
1.175 1.108 0.003 
1.187 1.115 0.002 
1.174 1.101 0.002 
1.185 1.106 0.001 
1.194 1.11 0.001 
1.194 1.105 0 
1.228 1.131 0 
1.27 1.161 -0.001 
1.292 1.176 -0.001 
1.313 1.189 -0.002 
1.34 1.207 -0.003 
1.336 1.199 -0.003 
1.345 1.203 -0.004 
1.357 1.207 -0.004 
1.351 1.199 -0.005 
1.349 1.194 -0.005 
1.382 1.216 -0.005 
1.399 1.225 -0.006 
1.424 1.24 -0.006 
1.438 1.247 -0.007 
1.447 1.25 -0.007 
1.46 1.256 -0.008 
1.485 1.271 -0.009 
1.498 1.276 -0.009 
1.513 1.282 -0.01 
1.531 1.292 -0.011 
1.585 1.328 -0.012 
1.627 1.356 -0.013 
1.648 1.367 -0.014 
1.66 1.37 -0.014 
1.67 1.373 -0.015 
1.683 1.378 -0.015 
1.692 1.38 -0.016 
1.702 1.382 -0.016 
1.718 1.388 -0.017 
1.753 1.41 -0.018 
1.97 1.563 -0.021 
2.19 1.719 -0.024 
2.541 1.97 -0.028 
2.599 2.003 -0.03 
2.611 2.005 -0.031 
2.638 2.016 -0.032 
2.649 2.016 -0.033 
2.653 2.01 -0.033 
2.654 2.003 -0.034 
2.655 1.996 -0.034 
2.663 1.993 -0.035 
2.663 1.985 -0.036 
2.671 1.983 -0.036 
2.67 1.974 -0.037 
2.68 1.972 -0.037 
2.681 1.964 -0.038 
2.683 1.957 -0.038 
2.686 1.951 -0.039 
-0.03 0.088 0 
-0.03 0.088 0 
-0.03 0.088 0 
-0.03 0.088 0 
-0.03 0.088 0 
