ply
format ascii 1.0
comment Created by CloudCompare v2.11.3 (Anoia)
comment Created 2021/4/5 12:53
obj_info Generated by CloudCompare!
element vertex 1525
property float x
property float y
property float z
property uchar red
property uchar green
property uchar blue
property float scalar_intensity
end_header
2.565 1.66 -0.213 0 59 255 7 
2.568 1.658 -0.207 0 59 255 7 
2.568 1.654 -0.202 0 59 255 7 
2.58 1.658 -0.198 0 59 255 7 
2.574 1.651 -0.191 0 59 255 7 
2.58 1.65 -0.185 0 68 255 8 
2.584 1.649 -0.18 0 68 255 8 
2.581 1.644 -0.174 0 59 255 7 
2.582 1.641 -0.168 0 59 255 7 
2.583 1.638 -0.162 0 59 255 7 
2.595 1.642 -0.157 0 93 255 11 
2.606 1.645 -0.152 0 221 255 26 
2.607 1.641 -0.146 0 255 187 46 
2.611 1.64 -0.14 0 255 229 36 
2.6 1.631 -0.134 0 127 255 15 
2.603 1.629 -0.128 0 59 255 7 
2.598 1.623 -0.122 0 59 255 7 
2.6 1.621 -0.117 0 59 255 7 
2.605 1.62 -0.111 0 59 255 7 
2.607 1.618 -0.105 0 59 255 7 
2.608 1.615 -0.099 0 59 255 7 
2.604 1.611 -0.093 0 59 255 7 
2.614 1.613 -0.088 0 59 255 7 
2.616 1.61 -0.082 0 59 255 7 
2.624 1.611 -0.076 0 51 255 6 
2.624 1.608 -0.07 0 51 255 6 
2.626 1.606 -0.064 0 51 255 6 
2.627 1.603 -0.058 0 51 255 6 
2.632 1.603 -0.053 0 68 255 8 
2.648 1.608 -0.047 0 255 233 35 
2.643 1.603 -0.041 0 255 127 60 
2.643 1.6 -0.035 0 255 93 68 
2.647 1.599 -0.029 0 255 42 80 
2.646 1.595 -0.024 0 255 93 68 
2.648 1.593 -0.018 0 255 93 68 
2.649 1.591 -0.012 0 255 17 86 
2.65 1.588 -0.006 0 255 17 86 
2.658 1.589 0 0 255 42 80 
2.655 1.584 0.005 0 255 42 80 
2.658 1.584 0.011 0 255 4 89 
2.658 1.58 0.017 0 255 25 84 
2.659 1.578 0.023 0 255 25 84 
2.659 1.575 0.029 0 255 25 84 
2.661 1.573 0.035 0 255 25 84 
2.662 1.57 0.041 0 255 25 84 
2.666 1.569 0.047 0 255 106 65 
2.677 1.573 0.053 0 255 216 39 
2.673 1.567 0.059 0 59 255 7 
2.671 1.564 0.065 0 42 255 5 
2.677 1.564 0.071 0 42 255 5 
2.671 1.558 0.077 0 42 255 5 
2.682 1.561 0.083 0 102 255 12 
2.691 1.563 0.09 0 204 255 24 
2.694 1.561 0.096 0 255 225 37 
2.693 1.559 0.102 0 255 153 54 
2.692 1.554 0.108 0 255 97 67 
2.695 1.554 0.114 0 255 68 74 
2.697 1.552 0.12 0 255 38 81 
2.694 1.548 0.126 0 255 38 81 
2.696 1.546 0.132 0 255 38 81 
2.7 1.545 0.138 0 255 38 81 
2.699 1.543 0.144 0 255 85 70 
2.706 1.543 0.15 0 255 165 51 
2.714 1.546 0.157 0 110 255 13 
2.702 1.536 0.162 0 34 255 4 
2.707 1.536 0.168 0 34 255 4 
2.713 1.537 0.174 0 34 255 4 
2.706 1.531 0.181 0 34 255 4 
2.71 1.531 0.187 0 34 255 4 
2.71 1.528 0.193 0 34 255 4 
2.711 1.526 0.199 0 34 255 4 
2.722 1.529 0.206 0 34 255 4 
2.714 1.523 0.211 0 34 255 4 
2.715 1.522 0.217 0 34 255 4 
2.715 1.519 0.223 0 34 255 4 
2.715 1.516 0.229 0 25 255 3 
2.72 1.516 0.235 0 25 255 3 
2.723 1.516 0.241 0 34 255 4 
2.742 1.524 0.249 0 187 255 22 
2.737 1.519 0.254 0 255 127 60 
2.735 1.515 0.26 0 255 29 83 
2.74 1.516 0.267 0 255 4 89 
2.737 1.512 0.272 0 255 29 83 
2.738 1.51 0.278 0 255 29 83 
2.741 1.51 0.284 0 255 4 89 
2.743 1.509 0.29 21 255 0 95 
2.749 1.509 0.297 0 255 55 77 
2.75 1.508 0.303 0 255 25 84 
2.754 1.508 0.309 0 255 76 72 
2.749 1.503 0.314 0 255 38 81 
2.755 1.504 0.321 0 255 76 72 
2.755 1.502 0.327 0 255 76 72 
2.757 1.502 0.333 0 255 76 72 
2.759 1.501 0.339 0 255 76 72 
2.76 1.499 0.345 0 255 110 64 
2.764 1.499 0.351 0 255 225 37 
2.565 1.645 0.363 0 34 255 4 
2.589 1.659 0.36 0 255 221 38 
2.58 1.653 0.353 0 255 110 64 
2.582 1.654 0.348 0 255 76 72 
2.582 1.652 0.342 0 255 93 68 
2.583 1.653 0.336 0 255 93 68 
2.584 1.652 0.33 0 255 93 68 
2.582 1.651 0.324 0 255 93 68 
2.584 1.651 0.318 0 255 72 73 
2.58 1.649 0.311 0 255 46 79 
2.581 1.648 0.305 0 255 46 79 
2.579 1.647 0.299 0 255 72 73 
2.583 1.648 0.293 0 255 46 79 
2.582 1.647 0.287 0 255 55 77 
2.588 1.65 0.282 0 255 8 88 
2.585 1.647 0.275 0 255 46 79 
2.587 1.648 0.27 0 255 123 61 
2.597 1.653 0.264 0 255 255 30 
2.584 1.644 0.257 0 68 255 8 
2.584 1.644 0.251 0 51 255 6 
2.583 1.642 0.244 0 51 255 6 
2.587 1.643 0.238 0 51 255 6 
2.588 1.642 0.232 0 51 255 6 
2.584 1.639 0.22 0 51 255 6 
2.588 1.64 0.214 0 51 255 6 
2.585 1.637 0.207 0 51 255 6 
2.588 1.637 0.201 0 51 255 6 
2.591 1.639 0.195 0 51 255 6 
2.588 1.636 0.189 0 51 255 6 
2.59 1.636 0.183 0 51 255 6 
2.589 1.635 0.176 0 51 255 6 
2.595 1.637 0.17 0 59 255 7 
2.609 1.644 0.165 0 255 238 34 
2.604 1.639 0.158 0 255 110 64 
2.596 1.633 0.152 0 255 72 73 
2.601 1.635 0.146 0 255 72 73 
2.6 1.633 0.139 0 255 46 79 
2.601 1.633 0.133 0 255 72 73 
2.599 1.63 0.126 0 255 76 72 
2.603 1.632 0.12 0 255 72 73 
2.604 1.631 0.114 0 255 72 73 
2.605 1.63 0.108 0 255 38 81 
2.607 1.63 0.102 0 255 72 73 
2.606 1.628 0.095 0 255 72 73 
2.602 1.625 0.089 0 255 12 87 
2.608 1.627 0.083 0 255 72 73 
2.607 1.624 0.076 0 255 72 73 
2.609 1.624 0.07 0 255 68 74 
2.616 1.627 0.064 0 255 140 57 
2.618 1.627 0.057 0 255 199 43 
2.62 1.627 0.051 0 255 204 42 
2.615 1.622 0.045 0 255 144 56 
2.618 1.622 0.038 0 255 131 59 
2.618 1.622 0.032 0 255 93 68 
2.614 1.618 0.026 0 255 63 75 
2.614 1.616 0.019 0 255 46 79 
2.615 1.616 0.013 0 255 46 79 
2.617 1.616 0.007 0 255 46 79 
2.617 1.613 0 0 255 72 73 
2.629 1.619 -0.005 0 255 93 68 
2.619 1.612 -0.011 0 255 46 79 
2.62 1.61 -0.018 0 255 46 79 
2.625 1.612 -0.024 0 255 42 80 
2.628 1.611 -0.029 0 255 8 88 
2.634 1.613 -0.036 0 255 93 68 
2.635 1.612 -0.042 0 255 161 52 
2.631 1.608 -0.049 0 144 255 17 
2.628 1.605 -0.055 0 51 255 6 
2.629 1.603 -0.061 0 51 255 6 
2.627 1.601 -0.067 0 51 255 6 
2.628 1.599 -0.074 0 51 255 6 
2.631 1.598 -0.08 0 51 255 6 
2.627 1.595 -0.086 0 51 255 6 
2.627 1.593 -0.093 0 51 255 6 
2.63 1.593 -0.099 0 51 255 6 
2.632 1.592 -0.105 0 51 255 6 
2.634 1.592 -0.112 0 51 255 6 
2.636 1.59 -0.118 0 51 255 6 
2.636 1.588 -0.124 0 51 255 6 
2.639 1.588 -0.131 0 51 255 6 
2.638 1.586 -0.137 0 51 255 6 
2.656 1.594 -0.144 0 170 255 20 
2.654 1.59 -0.15 0 255 136 58 
2.65 1.587 -0.156 0 255 68 74 
2.656 1.588 -0.163 0 255 68 74 
2.654 1.585 -0.169 0 255 42 80 
2.656 1.583 -0.175 0 255 68 74 
2.662 1.584 -0.182 0 255 38 81 
2.658 1.581 -0.188 0 255 25 84 
2.658 1.578 -0.194 0 255 68 74 
2.657 1.575 -0.2 0 255 68 74 
2.662 1.576 -0.207 0 255 42 80 
2.667 1.576 -0.213 0 255 29 83 
2.668 1.575 -0.22 0 255 29 83 
2.668 1.573 -0.226 0 255 46 79 
2.67 1.572 -0.232 0 255 89 69 
2.669 1.569 -0.238 0 255 119 62 
2.683 1.575 -0.245 0 255 208 41 
2.735 1.493 -0.177 0 8 255 1 
2.73 1.496 -0.172 0 25 255 3 
2.741 1.507 -0.169 0 42 255 5 
2.746 1.515 -0.165 0 136 255 16 
2.741 1.518 -0.16 0 255 229 36 
2.732 1.519 -0.156 0 255 131 59 
2.723 1.52 -0.151 0 255 72 73 
2.724 1.525 -0.147 0 255 51 78 
2.717 1.529 -0.143 0 255 59 76 
2.716 1.534 -0.14 0 255 59 76 
2.713 1.538 -0.136 0 255 59 76 
2.706 1.54 -0.131 0 255 76 72 
2.704 1.544 -0.127 0 255 123 61 
2.697 1.546 -0.123 0 255 63 75 
2.693 1.549 -0.119 0 255 89 69 
2.69 1.555 -0.115 0 255 68 74 
2.688 1.559 -0.11 0 255 68 74 
2.687 1.565 -0.106 0 255 110 64 
2.685 1.569 -0.102 0 255 238 34 
2.672 1.568 -0.098 0 51 255 6 
2.667 1.572 -0.094 0 34 255 4 
2.659 1.573 -0.09 0 34 255 4 
2.658 1.578 -0.086 0 42 255 5 
2.653 1.581 -0.082 0 42 255 5 
2.645 1.584 -0.077 0 42 255 5 
2.644 1.589 -0.073 0 42 255 5 
2.644 1.594 -0.07 0 42 255 5 
2.636 1.596 -0.066 0 42 255 5 
2.629 1.597 -0.062 0 42 255 5 
2.626 1.603 -0.058 0 51 255 6 
2.633 1.613 -0.054 0 102 255 12 
2.635 1.62 -0.05 0 229 255 27 
2.628 1.621 -0.046 0 255 182 47 
2.622 1.623 -0.042 0 255 123 61 
2.617 1.627 -0.038 0 255 110 64 
2.619 1.634 -0.034 0 255 153 54 
2.605 1.631 -0.031 0 161 255 19 
2.597 1.632 -0.027 0 51 255 6 
2.597 1.639 -0.024 0 51 255 6 
2.592 1.642 -0.02 0 51 255 6 
2.583 1.643 -0.017 0 51 255 6 
2.577 1.645 -0.013 0 59 255 7 
2.577 1.652 -0.009 0 59 255 7 
2.571 1.655 -0.005 0 59 255 7 
2.566 1.658 -0.002 0 59 255 7 
2.565 1.662 0 0 59 255 7 
2.563 1.669 0.004 0 59 255 7 
2.557 1.671 0.007 0 59 255 7 
2.547 1.671 0.011 0 59 255 7 
2.546 1.676 0.014 0 59 255 7 
2.542 1.681 0.018 0 68 255 8 
2.538 1.684 0.021 0 68 255 8 
2.539 1.691 0.025 0 85 255 10 
2.542 1.699 0.029 0 255 212 40 
2.531 1.699 0.032 0 255 80 71 
2.53 1.704 0.036 0 255 17 86 
2.521 1.705 0.039 0 255 38 81 
2.519 1.709 0.043 0 255 80 71 
2.516 1.714 0.046 0 255 80 71 
2.51 1.717 0.049 0 255 80 71 
2.508 1.721 0.053 0 255 80 71 
2.506 1.727 0.056 0 255 68 74 
2.503 1.731 0.06 0 255 93 68 
2.504 1.739 0.063 0 255 161 52 
2.497 1.741 0.066 0 255 212 40 
2.487 1.74 0.069 0 204 255 24 
2.476 1.739 0.072 0 119 255 14 
2.474 1.744 0.076 0 102 255 12 
2.467 1.745 0.079 0 102 255 12 
2.463 1.748 0.082 0 102 255 12 
2.461 1.755 0.085 0 136 255 16 
2.466 1.764 0.089 0 255 182 47 
2.466 1.77 0.092 0 255 63 75 
2.452 1.767 0.095 8 255 0 92 
2.451 1.773 0.098 0 255 12 87 
2.446 1.776 0.101 8 255 0 92 
2.441 1.779 0.104 0 255 12 87 
2.44 1.784 0.107 8 255 0 92 
2.435 1.787 0.109 0 255 12 87 
2.43 1.79 0.112 0 255 4 89 
2.425 1.793 0.115 0 255 4 89 
2.425 1.8 0.118 0 255 12 87 
2.42 1.803 0.121 0 255 12 87 
2.412 1.804 0.123 34 255 0 98 
2.41 1.808 0.126 0 255 59 76 
2.403 1.81 0.129 0 255 63 75 
2.4 1.815 0.132 0 255 63 75 
2.395 1.816 0.134 0 255 29 83 
2.394 1.822 0.137 0 255 63 75 
2.398 1.832 0.141 0 255 144 56 
2.389 1.831 0.143 0 212 255 25 
2.376 1.829 0.145 0 144 255 17 
2.372 1.832 0.148 0 144 255 17 
2.377 1.842 0.151 0 153 255 18 
2.365 1.84 0.153 0 144 255 17 
2.368 1.848 0.156 0 153 255 18 
2.358 1.848 0.158 0 153 255 18 
2.363 1.857 0.162 0 161 255 19 
2.355 1.858 0.164 0 170 255 20 
2.347 1.858 0.166 0 153 255 18 
2.349 1.866 0.169 0 170 255 20 
2.342 1.868 0.171 0 178 255 21 
2.339 1.872 0.174 0 187 255 22 
2.34 1.878 0.176 0 212 255 25 
2.326 1.875 0.178 0 255 238 34 
2.328 1.882 0.181 0 255 208 41 
2.329 1.889 0.184 0 255 178 48 
2.322 1.89 0.186 0 255 148 55 
2.318 1.894 0.188 0 255 161 52 
2.311 1.894 0.19 0 255 238 34 
2.309 1.898 0.192 0 204 255 24 
2.306 1.903 0.195 0 195 255 23 
2.303 1.907 0.197 0 195 255 23 
2.299 1.91 0.199 0 204 255 24 
2.298 1.915 0.2 0 204 255 24 
2.29 1.916 0.202 0 221 255 26 
2.291 1.923 0.205 0 204 255 24 
2.282 1.921 0.206 0 212 255 25 
2.278 1.925 0.208 0 221 255 26 
2.276 1.929 0.21 0 229 255 27 
2.271 1.931 0.212 0 238 255 28 
2.271 1.938 0.214 0 221 255 26 
2.269 1.943 0.217 0 229 255 27 
2.262 1.942 0.218 0 238 255 28 
2.257 1.945 0.22 0 229 255 27 
2.255 1.95 0.222 0 238 255 28 
2.252 1.953 0.224 0 238 255 28 
2.246 1.955 0.225 0 246 255 29 
2.242 1.957 0.227 0 255 204 42 
2.24 1.962 0.229 0 255 127 60 
2.238 1.967 0.231 0 255 42 80 
2.236 1.971 0.233 0 255 42 80 
2.227 1.975 0.236 0 255 42 80 
2.227 1.981 0.238 0 255 42 80 
2.222 1.984 0.239 0 255 68 74 
2.22 1.988 0.241 0 255 42 80 
2.214 1.994 0.244 0 255 42 80 
2.211 1.998 0.246 0 255 42 80 
2.208 2.001 0.247 0 255 42 80 
2.199 2.011 0.252 0 255 42 80 
2.195 2.015 0.253 0 255 42 80 
2.193 2.018 0.255 0 255 42 80 
2.185 2.024 0.257 0 255 51 78 
2.177 2.027 0.26 0 255 140 57 
2.179 2.035 0.262 0 221 255 26 
2.156 2.045 -0.006 0 51 255 6 
2.155 2.038 -0.006 0 195 255 23 
2.159 2.034 -0.007 0 255 216 39 
2.159 2.028 -0.009 0 255 208 41 
2.164 2.027 -0.01 0 255 204 42 
2.17 2.025 -0.011 0 255 225 37 
2.175 2.022 -0.012 0 255 229 36 
2.177 2.019 -0.013 0 255 212 40 
2.175 2.011 -0.015 0 255 208 41 
2.183 2.011 -0.016 0 255 195 44 
2.187 2.009 -0.017 0 255 191 45 
2.186 2.001 -0.018 0 255 204 42 
2.193 2.001 -0.019 0 255 195 44 
2.196 1.997 -0.02 0 255 195 44 
2.203 1.996 -0.021 0 255 204 42 
2.205 1.99 -0.022 0 255 221 38 
2.208 1.986 -0.023 0 255 221 38 
2.214 1.985 -0.024 0 255 212 40 
2.214 1.978 -0.025 0 255 216 39 
2.221 1.978 -0.026 0 255 212 40 
2.226 1.975 -0.027 0 255 195 44 
2.236 1.976 -0.027 0 255 140 57 
2.237 1.97 -0.028 0 255 106 65 
2.248 1.972 -0.029 0 255 59 76 
2.242 1.96 -0.03 0 255 97 67 
2.254 1.964 -0.031 0 255 59 76 
2.25 1.954 -0.032 0 255 106 65 
2.264 1.958 -0.033 0 255 51 78 
2.265 1.952 -0.034 0 255 51 78 
2.269 1.947 -0.035 0 255 51 78 
2.272 1.943 -0.036 0 255 51 78 
2.276 1.94 -0.036 0 255 51 78 
2.278 1.934 -0.037 0 255 59 76 
2.282 1.931 -0.038 0 255 51 78 
2.288 1.928 -0.039 0 255 51 78 
2.294 1.925 -0.04 0 255 59 76 
2.296 1.919 -0.041 0 255 51 78 
2.298 1.914 -0.041 0 255 51 78 
2.302 1.91 -0.041 0 255 89 69 
2.304 1.905 -0.042 0 255 182 47 
2.308 1.9 -0.043 0 221 255 26 
2.311 1.896 -0.043 0 212 255 25 
2.319 1.894 -0.044 0 204 255 24 
2.323 1.89 -0.045 0 195 255 23 
2.327 1.886 -0.045 0 195 255 23 
2.331 1.882 -0.046 0 187 255 22 
2.336 1.879 -0.047 0 187 255 22 
2.334 1.87 -0.047 0 170 255 20 
2.339 1.866 -0.048 0 161 255 19 
2.351 1.867 -0.049 0 170 255 20 
2.349 1.86 -0.049 0 161 255 19 
2.358 1.859 -0.05 0 170 255 20 
2.362 1.854 -0.05 0 170 255 20 
2.366 1.85 -0.051 0 170 255 20 
2.37 1.845 -0.051 0 170 255 20 
2.376 1.843 -0.052 0 170 255 20 
2.38 1.838 -0.053 0 255 182 47 
2.384 1.834 -0.053 0 255 63 75 
2.391 1.83 -0.054 0 255 63 75 
2.394 1.825 -0.054 0 255 63 75 
2.396 1.82 -0.054 0 255 29 83 
2.401 1.816 -0.055 0 255 63 75 
2.405 1.811 -0.055 0 255 63 75 
2.409 1.806 -0.056 0 255 17 86 
2.42 1.807 -0.056 0 255 4 89 
2.419 1.798 -0.057 0 255 34 82 
2.429 1.798 -0.057 0 255 12 87 
2.427 1.789 -0.057 0 255 46 79 
2.436 1.788 -0.058 0 255 12 87 
2.439 1.783 -0.057 0 255 12 87 
2.441 1.777 -0.057 0 255 25 84 
2.449 1.775 -0.058 0 255 51 78 
2.457 1.773 -0.058 0 255 136 58 
2.462 1.768 -0.058 0 161 255 19 
2.46 1.76 -0.058 0 102 255 12 
2.462 1.753 -0.059 0 102 255 12 
2.47 1.75 -0.059 0 102 255 12 
2.471 1.744 -0.059 0 93 255 11 
2.481 1.743 -0.059 0 93 255 11 
2.484 1.737 -0.06 0 93 255 11 
2.49 1.734 -0.06 0 93 255 11 
2.496 1.73 -0.06 0 85 255 10 
2.5 1.725 -0.06 0 85 255 10 
2.505 1.721 -0.06 0 76 255 9 
2.511 1.717 -0.06 0 76 255 9 
2.515 1.712 -0.06 0 76 255 9 
2.519 1.707 -0.06 0 76 255 9 
2.524 1.703 -0.061 0 102 255 12 
2.539 1.705 -0.061 0 255 178 48 
2.533 1.693 -0.061 0 255 46 79 
2.538 1.688 -0.061 0 255 46 79 
2.547 1.686 -0.061 0 255 51 78 
2.554 1.684 -0.061 0 255 51 78 
2.556 1.676 -0.061 0 255 34 82 
2.559 1.671 -0.061 0 255 34 82 
2.566 1.669 -0.061 0 255 51 78 
2.568 1.662 -0.061 0 255 42 80 
2.582 1.663 -0.061 0 255 72 73 
2.586 1.657 -0.06 0 255 72 73 
2.59 1.652 -0.059 0 255 76 72 
2.593 1.646 -0.059 0 255 93 68 
2.596 1.641 -0.059 0 255 76 72 
2.607 1.639 -0.059 0 255 93 68 
2.617 1.637 -0.059 0 255 204 42 
2.609 1.625 -0.059 0 59 255 7 
2.614 1.62 -0.058 0 51 255 6 
2.618 1.617 -0.058 0 51 255 6 
2.624 1.612 -0.058 0 51 255 6 
2.628 1.607 -0.058 0 51 255 6 
2.636 1.604 -0.057 0 42 255 5 
2.641 1.599 -0.057 0 42 255 5 
2.644 1.594 -0.057 0 42 255 5 
2.648 1.588 -0.057 0 42 255 5 
2.654 1.584 -0.056 0 42 255 5 
2.658 1.578 -0.056 0 42 255 5 
2.661 1.573 -0.055 0 42 255 5 
2.664 1.567 -0.055 0 42 255 5 
2.675 1.565 -0.055 0 85 255 10 
2.689 1.566 -0.055 0 255 187 46 
2.691 1.559 -0.054 0 255 106 65 
2.696 1.554 -0.054 0 255 114 63 
2.707 1.552 -0.053 0 255 127 60 
2.711 1.548 -0.053 0 255 131 59 
2.715 1.542 -0.052 0 255 161 52 
2.719 1.537 -0.052 0 255 178 48 
2.727 1.534 -0.051 0 255 212 40 
2.732 1.529 -0.051 0 255 229 36 
2.741 1.526 -0.05 0 255 246 32 
2.745 1.52 -0.049 0 187 255 22 
2.754 1.518 -0.048 0 153 255 18 
2.752 1.509 -0.048 0 110 255 13 
2.746 1.499 -0.047 0 68 255 8 
2.749 1.493 -0.046 0 34 255 4 
2.767 1.488 0.083 0 255 178 48 
2.759 1.49 0.079 0 255 110 64 
2.75 1.491 0.074 0 255 68 74 
2.749 1.496 0.071 0 255 63 75 
2.753 1.504 0.067 0 255 85 70 
2.744 1.504 0.063 0 255 68 74 
2.741 1.509 0.058 0 255 68 74 
2.737 1.513 0.054 0 255 80 71 
2.739 1.519 0.05 0 255 106 65 
2.731 1.521 0.046 0 255 204 42 
2.737 1.53 0.041 0 170 255 20 
2.718 1.525 0.038 0 51 255 6 
2.705 1.524 0.034 0 25 255 3 
2.706 1.531 0.029 0 25 255 3 
2.705 1.536 0.024 0 25 255 3 
2.699 1.538 0.02 0 34 255 4 
2.698 1.543 0.016 0 34 255 4 
2.694 1.547 0.012 0 34 255 4 
2.687 1.549 0.008 0 34 255 4 
2.697 1.56 0.004 0 187 255 22 
2.689 1.561 0 0 255 161 52 
2.684 1.564 -0.004 0 255 89 69 
2.677 1.566 -0.008 0 255 68 74 
2.676 1.571 -0.012 0 255 68 74 
2.671 1.574 -0.017 0 255 89 69 
2.671 1.579 -0.021 0 255 89 69 
2.665 1.582 -0.024 0 255 68 74 
2.663 1.586 -0.028 0 255 68 74 
2.656 1.588 -0.033 0 255 76 72 
2.656 1.594 -0.037 0 255 110 64 
2.645 1.593 -0.041 0 255 110 64 
2.647 1.599 -0.046 0 255 174 49 
2.65 1.606 -0.05 0 212 255 25 
2.633 1.602 -0.054 0 68 255 8 
2.627 1.604 -0.058 0 42 255 5 
2.623 1.608 -0.063 0 42 255 5 
2.618 1.611 -0.067 0 42 255 5 
2.613 1.612 -0.071 0 51 255 6 
2.61 1.616 -0.076 0 51 255 6 
2.605 1.618 -0.08 0 51 255 6 
2.61 1.627 -0.085 0 136 255 16 
2.607 1.63 -0.089 0 255 178 48 
2.603 1.633 -0.094 0 255 114 63 
2.6 1.637 -0.098 0 255 68 74 
2.595 1.64 -0.102 0 255 72 73 
2.591 1.642 -0.107 0 255 63 75 
2.59 1.647 -0.111 0 255 72 73 
2.586 1.65 -0.116 0 255 76 72 
2.583 1.653 -0.12 0 255 76 72 
2.578 1.656 -0.124 0 255 63 75 
2.579 1.663 -0.13 0 255 72 73 
2.57 1.662 -0.134 0 255 72 73 
2.567 1.666 -0.139 0 255 119 62 
2.569 1.672 -0.143 0 255 208 41 
2.557 1.67 -0.147 0 136 255 16 
2.55 1.671 -0.152 0 68 255 8 
2.549 1.675 -0.156 0 59 255 7 
2.547 1.679 -0.161 0 59 255 7 
2.542 1.681 -0.165 0 59 255 7 
2.539 1.685 -0.17 0 68 255 8 
2.536 1.688 -0.174 0 68 255 8 
2.533 1.692 -0.179 0 68 255 8 
2.529 1.694 -0.183 0 68 255 8 
2.525 1.696 -0.188 0 136 255 16 
2.535 1.708 -0.193 0 255 199 43 
2.53 1.711 -0.197 0 255 123 61 
2.515 1.706 -0.201 0 255 55 77 
2.512 1.71 -0.206 0 255 46 79 
2.514 1.715 -0.21 0 255 59 76 
2.511 1.718 -0.215 0 255 59 76 
2.504 1.719 -0.219 0 255 63 75 
2.511 1.729 -0.225 0 255 157 53 
2.506 1.73 -0.229 0 195 255 23 
2.503 1.735 -0.233 0 51 255 6 
2.615 1.63 -0.239 0 255 72 73 
2.609 1.626 -0.232 17 255 0 94 
2.611 1.625 -0.226 17 255 0 94 
2.612 1.624 -0.219 17 255 0 94 
2.613 1.624 -0.213 17 255 0 94 
2.613 1.623 -0.207 17 255 0 94 
2.614 1.621 -0.2 17 255 0 94 
2.617 1.621 -0.194 29 255 0 97 
2.616 1.62 -0.187 17 255 0 94 
2.618 1.62 -0.181 29 255 0 97 
2.618 1.619 -0.175 17 255 0 94 
2.619 1.618 -0.168 17 255 0 94 
2.619 1.617 -0.162 17 255 0 94 
2.627 1.621 -0.156 0 255 93 68 
2.622 1.617 -0.149 0 255 123 61 
2.629 1.619 -0.143 0 178 255 21 
2.623 1.614 -0.136 0 59 255 7 
2.616 1.609 -0.13 0 51 255 6 
2.614 1.607 -0.123 0 51 255 6 
2.617 1.607 -0.117 0 59 255 7 
2.614 1.605 -0.11 0 59 255 7 
2.621 1.607 -0.104 0 51 255 6 
2.62 1.606 -0.097 0 51 255 6 
2.619 1.604 -0.091 0 51 255 6 
2.627 1.608 -0.084 0 51 255 6 
2.624 1.605 -0.078 0 51 255 6 
2.625 1.604 -0.072 0 51 255 6 
2.626 1.604 -0.065 0 51 255 6 
2.628 1.604 -0.059 0 51 255 6 
2.63 1.604 -0.052 0 110 255 13 
2.638 1.607 -0.046 0 255 170 50 
2.638 1.607 -0.039 0 255 93 68 
2.633 1.602 -0.033 0 255 93 68 
2.634 1.602 -0.026 0 255 8 88 
2.634 1.602 -0.021 0 255 8 88 
2.64 1.604 -0.014 0 255 72 73 
2.635 1.6 -0.008 0 255 8 88 
2.636 1.6 -0.001 0 255 8 88 
2.635 1.598 0.004 0 255 8 88 
2.642 1.601 0.011 0 255 72 73 
2.636 1.598 0.017 17 255 0 94 
2.637 1.597 0.024 29 255 0 97 
2.638 1.596 0.031 29 255 0 97 
2.638 1.597 0.037 29 255 0 97 
2.644 1.599 0.044 0 255 93 68 
2.642 1.597 0.05 0 255 119 62 
2.652 1.601 0.057 0 246 255 29 
2.644 1.597 0.063 0 51 255 6 
2.637 1.591 0.069 0 51 255 6 
2.637 1.592 0.076 0 51 255 6 
2.635 1.59 0.082 0 51 255 6 
2.64 1.591 0.089 0 42 255 5 
2.64 1.592 0.095 0 42 255 5 
2.642 1.591 0.102 0 42 255 5 
2.643 1.592 0.108 0 42 255 5 
2.644 1.592 0.115 0 42 255 5 
2.64 1.59 0.121 0 42 255 5 
2.642 1.589 0.127 0 42 255 5 
2.643 1.59 0.134 0 42 255 5 
2.644 1.59 0.14 0 42 255 5 
2.646 1.591 0.147 0 59 255 7 
2.656 1.595 0.154 0 255 229 36 
2.649 1.591 0.16 0 255 106 65 
2.647 1.589 0.166 0 255 42 80 
2.651 1.592 0.173 0 255 42 80 
2.65 1.591 0.179 0 255 42 80 
2.653 1.591 0.186 0 255 12 87 
2.652 1.591 0.192 0 255 68 74 
2.647 1.589 0.198 0 255 42 80 
2.651 1.589 0.205 0 255 42 80 
2.651 1.59 0.211 0 255 12 87 
2.652 1.59 0.218 0 255 12 87 
2.651 1.589 0.224 0 255 12 87 
2.651 1.589 0.23 0 255 12 87 
2.65 1.588 0.236 0 255 12 87 
2.649 1.588 0.243 0 255 12 87 
2.652 1.588 0.249 0 255 68 74 
2.654 1.59 0.256 0 255 140 57 
2.656 1.591 0.262 0 144 255 17 
2.645 1.584 0.267 0 42 255 5 
2.65 1.587 0.274 0 34 255 4 
2.653 1.589 0.281 0 34 255 4 
2.651 1.588 0.287 0 34 255 4 
2.648 1.586 0.292 0 34 255 4 
2.647 1.586 0.299 0 34 255 4 
2.648 1.585 0.305 0 34 255 4 
2.647 1.585 0.311 0 34 255 4 
2.647 1.585 0.317 0 34 255 4 
2.65 1.587 0.324 0 34 255 4 
2.652 1.588 0.33 0 34 255 4 
2.65 1.587 0.336 0 34 255 4 
2.651 1.587 0.342 0 34 255 4 
2.649 1.588 0.354 0 25 255 3 
2.652 1.589 0.361 0 8 255 1 
2.475 1.761 0.375 0 187 255 22 
2.484 1.765 0.371 0 255 157 53 
2.47 1.753 0.363 0 255 55 77 
2.473 1.753 0.358 0 255 25 84 
2.477 1.752 0.353 0 255 76 72 
2.484 1.754 0.348 0 255 127 60 
2.489 1.756 0.343 0 255 187 46 
2.476 1.744 0.336 0 238 255 28 
2.478 1.744 0.331 0 136 255 16 
2.482 1.74 0.32 0 68 255 8 
2.482 1.738 0.314 0 68 255 8 
2.482 1.735 0.309 0 76 255 9 
2.483 1.734 0.303 0 76 255 9 
2.485 1.733 0.298 0 76 255 9 
2.485 1.729 0.292 0 76 255 9 
2.491 1.73 0.287 0 76 255 9 
2.491 1.727 0.282 0 85 255 10 
2.495 1.728 0.277 0 246 255 29 
2.508 1.733 0.273 0 255 144 56 
2.498 1.724 0.266 0 255 46 79 
2.502 1.723 0.26 0 255 80 71 
2.5 1.719 0.254 0 255 80 71 
2.506 1.72 0.249 4 255 0 91 
2.507 1.718 0.244 0 255 17 86 
2.509 1.717 0.238 0 255 17 86 
2.51 1.714 0.233 0 255 80 71 
2.511 1.712 0.227 0 255 17 86 
2.515 1.711 0.222 0 255 51 78 
2.516 1.709 0.216 4 255 0 91 
2.518 1.707 0.211 4 255 0 91 
2.518 1.704 0.205 0 255 8 88 
2.521 1.703 0.2 4 255 0 91 
2.522 1.7 0.194 0 255 17 86 
2.526 1.7 0.189 0 255 4 89 
2.528 1.697 0.183 0 255 4 89 
2.53 1.696 0.177 0 255 4 89 
2.54 1.698 0.172 0 255 127 60 
2.544 1.698 0.167 0 255 229 36 
2.535 1.689 0.161 0 102 255 12 
2.541 1.69 0.155 0 161 255 19 
2.55 1.692 0.15 0 255 212 40 
2.555 1.692 0.145 0 255 140 57 
2.545 1.682 0.138 0 255 42 80 
2.543 1.678 0.133 0 255 4 89 
2.545 1.675 0.127 0 255 4 89 
2.549 1.674 0.121 17 255 0 94 
2.553 1.674 0.116 0 255 4 89 
2.557 1.673 0.11 0 255 4 89 
2.557 1.669 0.105 0 255 4 89 
2.559 1.667 0.099 0 255 51 78 
2.557 1.662 0.094 17 255 0 94 
2.565 1.663 0.088 0 255 4 89 
2.567 1.661 0.083 8 255 0 92 
2.562 1.655 0.077 17 255 0 94 
2.566 1.653 0.072 0 255 34 82 
2.581 1.66 0.066 0 255 140 57 
2.585 1.659 0.06 0 255 229 36 
2.574 1.647 0.055 0 85 255 10 
2.58 1.647 0.049 0 59 255 7 
2.581 1.645 0.044 0 59 255 7 
2.585 1.644 0.038 0 59 255 7 
2.585 1.64 0.032 0 59 255 7 
2.583 1.635 0.027 0 59 255 7 
2.589 1.635 0.021 0 59 255 7 
2.59 1.631 0.015 0 59 255 7 
2.594 1.63 0.01 0 59 255 7 
2.594 1.626 0.004 0 59 255 7 
2.605 1.629 0 0 68 255 8 
2.621 1.635 -0.006 0 221 255 26 
2.617 1.628 -0.012 0 255 161 52 
2.618 1.625 -0.017 0 255 131 59 
2.615 1.62 -0.023 0 255 72 73 
2.616 1.618 -0.028 0 255 46 79 
2.624 1.618 -0.033 0 255 93 68 
2.632 1.619 -0.039 0 255 144 56 
2.631 1.615 -0.045 0 255 255 30 
2.629 1.609 -0.05 0 76 255 9 
2.627 1.604 -0.056 0 51 255 6 
2.625 1.6 -0.061 0 51 255 6 
2.633 1.6 -0.067 0 42 255 5 
2.637 1.598 -0.073 0 42 255 5 
2.634 1.592 -0.078 0 42 255 5 
2.636 1.59 -0.084 0 51 255 6 
2.646 1.591 -0.089 0 42 255 5 
2.641 1.585 -0.095 0 42 255 5 
2.645 1.583 -0.1 0 42 255 5 
2.65 1.581 -0.106 0 42 255 5 
2.656 1.58 -0.112 0 42 255 5 
2.656 1.577 -0.117 0 42 255 5 
2.651 1.571 -0.122 0 42 255 5 
2.662 1.572 -0.128 0 42 255 5 
2.665 1.569 -0.134 0 42 255 5 
2.664 1.565 -0.139 0 42 255 5 
2.685 1.572 -0.145 0 204 255 24 
2.687 1.569 -0.151 0 255 221 38 
2.69 1.566 -0.157 0 161 255 19 
2.678 1.556 -0.161 0 42 255 5 
2.679 1.552 -0.167 0 34 255 4 
2.683 1.55 -0.172 0 34 255 4 
2.689 1.549 -0.178 0 34 255 4 
2.69 1.545 -0.183 0 34 255 4 
2.691 1.542 -0.189 0 34 255 4 
2.697 1.541 -0.195 0 34 255 4 
2.699 1.537 -0.2 0 34 255 4 
2.704 1.535 -0.205 0 34 255 4 
2.708 1.534 -0.211 0 34 255 4 
2.709 1.53 -0.215 0 34 255 4 
2.707 1.525 -0.22 0 34 255 4 
2.712 1.522 -0.226 0 34 255 4 
2.717 1.521 -0.232 0 34 255 4 
2.721 1.52 -0.237 0 34 255 4 
2.722 1.515 -0.242 0 34 255 4 
2.728 1.514 -0.248 0 25 255 3 
2.729 1.51 -0.253 0 17 255 2 
2.753 1.5 -0.114 0 255 153 54 
2.745 1.503 -0.112 0 255 63 75 
2.74 1.508 -0.109 0 255 68 74 
2.74 1.514 -0.107 0 255 63 75 
2.731 1.517 -0.104 0 255 76 72 
2.728 1.522 -0.102 0 255 76 72 
2.723 1.527 -0.099 0 255 63 75 
2.714 1.529 -0.097 0 255 80 71 
2.711 1.534 -0.095 0 255 80 71 
2.709 1.539 -0.093 0 255 80 71 
2.705 1.544 -0.09 0 255 106 65 
2.702 1.55 -0.088 0 255 76 72 
2.693 1.552 -0.086 0 255 106 65 
2.689 1.557 -0.083 0 255 89 69 
2.686 1.562 -0.081 0 255 148 55 
2.692 1.573 -0.079 0 161 255 19 
2.671 1.568 -0.076 0 34 255 4 
2.667 1.573 -0.074 0 34 255 4 
2.658 1.575 -0.072 0 34 255 4 
2.657 1.581 -0.069 0 42 255 5 
2.649 1.584 -0.067 0 42 255 5 
2.647 1.591 -0.065 0 42 255 5 
2.639 1.593 -0.063 0 42 255 5 
2.634 1.597 -0.061 0 42 255 5 
2.634 1.604 -0.059 0 42 255 5 
2.632 1.609 -0.056 0 59 255 7 
2.626 1.613 -0.054 0 76 255 9 
2.62 1.618 -0.052 0 110 255 13 
2.615 1.621 -0.05 0 153 255 18 
2.62 1.63 -0.048 0 221 255 26 
2.618 1.636 -0.046 0 255 233 35 
2.615 1.641 -0.044 0 255 250 31 
2.595 1.637 -0.042 0 170 255 20 
2.595 1.645 -0.04 0 127 255 15 
2.584 1.646 -0.038 0 76 255 9 
2.575 1.647 -0.036 0 59 255 7 
2.572 1.653 -0.034 0 59 255 7 
2.569 1.658 -0.032 0 59 255 7 
2.563 1.661 -0.03 0 51 255 6 
2.559 1.666 -0.029 0 59 255 7 
2.558 1.672 -0.027 0 59 255 7 
2.551 1.675 -0.025 0 59 255 7 
2.547 1.679 -0.024 0 59 255 7 
2.543 1.686 -0.023 0 59 255 7 
2.537 1.688 -0.021 0 68 255 8 
2.534 1.694 -0.019 0 170 255 20 
2.536 1.702 -0.017 0 255 127 60 
2.524 1.702 -0.015 0 255 55 77 
2.521 1.708 -0.014 0 255 55 77 
2.517 1.712 -0.012 0 255 102 66 
2.513 1.717 -0.01 0 255 102 66 
2.51 1.722 -0.008 0 255 102 66 
2.507 1.727 -0.007 0 255 102 66 
2.501 1.731 -0.005 0 255 80 71 
2.497 1.735 -0.004 0 255 80 71 
2.495 1.741 -0.002 0 255 80 71 
2.489 1.745 0 0 255 80 71 
2.488 1.751 0 0 255 80 71 
2.48 1.753 0.002 0 255 63 75 
2.468 1.753 0.003 0 255 51 78 
2.465 1.759 0.005 0 255 51 78 
2.467 1.767 0.006 0 255 131 59 
2.46 1.769 0.008 0 204 255 24 
2.446 1.767 0.009 0 102 255 12 
2.442 1.772 0.011 0 110 255 13 
2.437 1.775 0.012 0 110 255 13 
2.432 1.779 0.014 0 110 255 13 
2.429 1.784 0.015 0 110 255 13 
2.425 1.788 0.016 0 119 255 14 
2.421 1.793 0.017 0 119 255 14 
2.418 1.798 0.018 0 119 255 14 
2.409 1.799 0.019 0 119 255 14 
2.408 1.805 0.021 0 127 255 15 
2.399 1.807 0.022 0 127 255 15 
2.4 1.815 0.023 0 127 255 15 
2.396 1.819 0.024 0 136 255 16 
2.389 1.821 0.026 0 144 255 17 
2.385 1.826 0.027 0 170 255 20 
2.383 1.831 0.028 0 255 182 47 
2.38 1.836 0.029 0 255 63 75 
2.377 1.841 0.03 0 255 63 75 
2.374 1.846 0.032 0 255 63 75 
2.367 1.847 0.033 0 255 29 83 
2.363 1.852 0.034 0 255 38 81 
2.356 1.854 0.035 0 255 51 78 
2.356 1.861 0.036 0 255 38 81 
2.353 1.866 0.037 0 255 38 81 
2.347 1.869 0.038 0 255 29 83 
2.34 1.871 0.039 0 255 42 80 
2.342 1.88 0.04 0 255 38 81 
2.335 1.881 0.041 0 255 21 85 
2.33 1.885 0.042 0 255 42 80 
2.324 1.887 0.043 0 255 21 85 
2.317 1.889 0.044 0 255 59 76 
2.316 1.895 0.044 0 255 34 82 
2.314 1.9 0.045 0 255 157 53 
2.306 1.901 0.046 0 255 238 34 
2.303 1.907 0.047 0 212 255 25 
2.299 1.91 0.048 0 221 255 26 
2.289 1.91 0.048 0 246 255 29 
2.287 1.915 0.049 0 255 255 30 
2.283 1.918 0.049 0 246 255 29 
2.277 1.92 0.05 0 255 255 30 
2.272 1.925 0.05 0 255 250 31 
2.268 1.928 0.051 0 255 250 31 
2.264 1.931 0.052 0 255 246 32 
2.264 1.939 0.052 0 255 246 32 
2.258 1.941 0.053 0 255 246 32 
2.259 1.948 0.054 0 255 238 34 
2.25 1.948 0.054 0 255 242 33 
2.248 1.953 0.055 0 255 246 32 
2.246 1.958 0.055 0 255 242 33 
2.241 1.961 0.056 0 255 246 32 
2.238 1.965 0.057 0 255 212 40 
2.235 1.969 0.057 0 255 157 53 
2.232 1.974 0.058 0 255 102 66 
2.217 1.975 0.058 0 255 63 75 
2.214 1.978 0.059 0 255 63 75 
2.21 1.982 0.059 0 255 63 75 
2.206 1.986 0.059 0 255 55 77 
2.201 1.988 0.06 0 255 59 76 
2.198 1.993 0.06 0 255 46 79 
2.191 1.993 0.06 0 255 42 80 
2.192 2 0.061 0 255 46 79 
2.185 2.001 0.061 0 255 29 83 
2.194 2.016 0.062 21 255 0 95 
2.182 2.011 0.062 0 255 46 79 
2.176 2.012 0.062 0 255 29 83 
2.172 2.016 0.062 0 255 29 83 
2.169 2.02 0.062 0 255 29 83 
2.168 2.026 0.062 0 255 46 79 
2.165 2.029 0.063 0 255 59 76 
2.166 2.037 0.063 0 255 153 54 
2.164 2.041 0.062 0 170 255 20 
2.152 2.057 -0.199 0 119 255 14 
2.156 2.055 -0.199 0 255 246 32 
2.157 2.048 -0.199 0 255 199 43 
2.161 2.046 -0.198 0 255 191 45 
2.165 2.043 -0.198 0 255 170 50 
2.17 2.041 -0.198 0 255 161 52 
2.171 2.036 -0.198 0 255 161 52 
2.171 2.029 -0.196 0 255 148 55 
2.176 2.027 -0.196 0 255 123 61 
2.18 2.024 -0.196 0 255 119 62 
2.183 2.02 -0.196 0 255 106 65 
2.195 2.017 -0.195 0 255 34 82 
2.186 2.003 -0.194 0 255 63 75 
2.194 2.003 -0.194 0 255 17 86 
2.192 1.995 -0.193 0 255 63 75 
2.208 2.002 -0.194 0 255 34 82 
2.207 1.994 -0.193 0 255 4 89 
2.214 1.994 -0.193 0 255 34 82 
2.213 1.986 -0.192 0 255 102 66 
2.22 1.985 -0.192 0 255 140 57 
2.225 1.981 -0.191 0 255 229 36 
2.225 1.976 -0.191 0 246 255 29 
2.223 1.968 -0.19 0 221 255 26 
2.232 1.968 -0.189 0 195 255 23 
2.241 1.968 -0.189 0 178 255 21 
2.242 1.963 -0.188 0 178 255 21 
2.25 1.963 -0.188 0 212 255 25 
2.253 1.958 -0.187 0 221 255 26 
2.255 1.952 -0.186 0 229 255 27 
2.255 1.946 -0.186 0 246 255 29 
2.258 1.941 -0.185 0 246 255 29 
2.267 1.941 -0.184 0 221 255 26 
2.272 1.938 -0.184 0 212 255 25 
2.275 1.933 -0.183 0 212 255 25 
2.279 1.93 -0.182 0 212 255 25 
2.287 1.93 -0.182 0 204 255 24 
2.289 1.924 -0.181 0 204 255 24 
2.292 1.92 -0.18 0 204 255 24 
2.293 1.913 -0.178 0 255 225 37 
2.297 1.909 -0.177 0 255 140 57 
2.303 1.907 -0.176 0 255 21 85 
2.31 1.905 -0.175 0 255 21 85 
2.313 1.9 -0.174 12 255 0 93 
2.315 1.895 -0.173 0 255 0 90 
2.319 1.891 -0.172 0 255 51 78 
2.327 1.889 -0.171 0 255 29 83 
2.328 1.883 -0.17 0 255 21 85 
2.333 1.88 -0.169 0 255 29 83 
2.338 1.876 -0.168 0 255 21 85 
2.341 1.872 -0.167 0 255 21 85 
2.342 1.866 -0.166 0 255 21 85 
2.35 1.865 -0.165 0 255 29 83 
2.355 1.861 -0.164 0 255 8 88 
2.357 1.855 -0.162 0 255 29 83 
2.362 1.852 -0.161 4 255 0 91 
2.364 1.846 -0.16 0 255 17 86 
2.372 1.845 -0.159 0 255 136 58 
2.379 1.843 -0.158 0 229 255 27 
2.38 1.836 -0.156 0 161 255 19 
2.385 1.833 -0.155 0 153 255 18 
2.385 1.826 -0.154 0 153 255 18 
2.389 1.822 -0.152 0 136 255 16 
2.395 1.818 -0.151 0 127 255 15 
2.399 1.814 -0.15 0 127 255 15 
2.403 1.81 -0.148 0 119 255 14 
2.408 1.806 -0.147 0 119 255 14 
2.41 1.8 -0.146 0 127 255 15 
2.421 1.801 -0.144 0 127 255 15 
2.419 1.792 -0.143 0 119 255 14 
2.425 1.789 -0.141 0 119 255 14 
2.431 1.786 -0.139 0 110 255 13 
2.434 1.781 -0.137 0 110 255 13 
2.445 1.781 -0.136 0 119 255 14 
2.451 1.778 -0.135 0 229 255 27 
2.454 1.773 -0.133 0 255 136 58 
2.458 1.768 -0.131 0 255 127 60 
2.464 1.765 -0.13 0 255 144 56 
2.474 1.765 -0.129 0 255 212 40 
2.474 1.757 -0.127 0 255 255 30 
2.473 1.749 -0.125 0 161 255 19 
2.479 1.745 -0.123 0 110 255 13 
2.477 1.738 -0.121 0 102 255 12 
2.484 1.735 -0.12 0 93 255 11 
2.49 1.731 -0.118 0 93 255 11 
2.492 1.726 -0.116 0 93 255 11 
2.501 1.724 -0.115 0 85 255 10 
2.504 1.718 -0.113 0 85 255 10 
2.511 1.716 -0.111 0 85 255 10 
2.512 1.71 -0.109 0 76 255 9 
2.518 1.706 -0.107 0 76 255 9 
2.524 1.703 -0.106 0 246 255 29 
2.529 1.699 -0.104 0 255 102 66 
2.535 1.695 -0.102 0 255 17 86 
2.537 1.689 -0.1 0 255 17 86 
2.543 1.686 -0.098 0 255 25 84 
2.546 1.681 -0.096 0 255 25 84 
2.552 1.677 -0.094 0 255 34 82 
2.551 1.669 -0.092 0 255 4 89 
2.562 1.668 -0.09 0 255 25 84 
2.565 1.663 -0.088 0 255 25 84 
2.568 1.658 -0.085 0 255 25 84 
2.572 1.653 -0.083 0 255 12 87 
2.578 1.65 -0.081 0 255 12 87 
2.585 1.647 -0.079 0 255 46 79 
2.582 1.638 -0.077 0 255 12 87 
2.598 1.641 -0.075 0 255 93 68 
2.605 1.636 -0.072 0 255 131 59 
2.613 1.634 -0.07 0 229 255 27 
2.608 1.624 -0.068 0 51 255 6 
2.61 1.619 -0.066 0 51 255 6 
2.615 1.616 -0.064 0 51 255 6 
2.618 1.611 -0.061 0 51 255 6 
2.626 1.608 -0.059 0 51 255 6 
2.63 1.603 -0.057 0 42 255 5 
2.635 1.598 -0.055 0 42 255 5 
2.643 1.596 -0.052 0 51 255 6 
2.649 1.593 -0.05 0 102 255 12 
2.652 1.588 -0.048 0 204 255 24 
2.668 1.589 -0.046 0 255 216 39 
2.666 1.581 -0.043 0 255 136 58 
2.672 1.578 -0.041 0 255 106 65 
2.673 1.571 -0.038 0 255 89 69 
2.681 1.569 -0.036 0 255 106 65 
2.692 1.567 -0.034 0 255 233 35 
2.684 1.556 -0.031 0 42 255 5 
2.691 1.553 -0.029 0 34 255 4 
2.691 1.546 -0.026 0 34 255 4 
2.703 1.546 -0.024 0 34 255 4 
2.702 1.538 -0.022 0 34 255 4 
2.71 1.535 -0.02 0 34 255 4 
2.713 1.53 -0.016 0 34 255 4 
2.717 1.525 -0.014 0 34 255 4 
2.717 1.518 -0.011 0 34 255 4 
2.725 1.516 -0.008 0 25 255 3 
2.735 1.514 -0.006 0 25 255 3 
2.736 1.507 -0.003 0 25 255 3 
2.742 1.504 -0.001 0 25 255 3 
2.745 1.499 0.001 0 25 255 3 
2.75 1.495 0.004 0 25 255 3 
2.765 1.472 0.218 0 8 255 1 
2.764 1.481 0.208 0 17 255 2 
2.755 1.48 0.203 0 25 255 3 
2.754 1.484 0.198 0 25 255 3 
2.749 1.485 0.192 0 25 255 3 
2.744 1.487 0.187 0 25 255 3 
2.745 1.491 0.182 0 25 255 3 
2.742 1.499 0.172 0 25 255 3 
2.735 1.499 0.166 0 25 255 3 
2.734 1.503 0.161 0 25 255 3 
2.748 1.518 0.152 0 136 255 16 
2.736 1.516 0.146 0 255 187 46 
2.73 1.517 0.14 0 255 102 66 
2.725 1.519 0.135 0 255 63 75 
2.723 1.522 0.13 0 255 63 75 
2.721 1.524 0.124 0 255 59 76 
2.719 1.528 0.119 0 255 59 76 
2.714 1.529 0.114 0 255 72 73 
2.708 1.53 0.108 0 255 59 76 
2.709 1.534 0.102 0 255 76 72 
2.708 1.538 0.096 0 255 46 79 
2.703 1.54 0.091 0 255 85 70 
2.702 1.543 0.086 0 255 85 70 
2.697 1.545 0.08 0 255 89 69 
2.697 1.548 0.075 0 255 89 69 
2.696 1.552 0.069 0 255 114 63 
2.697 1.556 0.064 0 255 178 48 
2.7 1.562 0.059 0 238 255 28 
2.688 1.56 0.053 0 161 255 19 
2.686 1.562 0.047 0 255 165 51 
2.684 1.565 0.042 0 255 89 69 
2.678 1.565 0.036 0 255 68 74 
2.674 1.568 0.031 0 255 63 75 
2.667 1.567 0.025 0 255 68 74 
2.671 1.574 0.02 0 255 68 74 
2.67 1.577 0.014 0 255 68 74 
2.668 1.58 0.009 0 255 68 74 
2.66 1.579 0.003 0 255 68 74 
2.658 1.583 -0.001 0 255 68 74 
2.656 1.585 -0.007 0 255 68 74 
2.655 1.588 -0.013 0 255 68 74 
2.655 1.592 -0.018 0 255 68 74 
2.651 1.593 -0.024 0 255 68 74 
2.641 1.592 -0.028 0 255 76 72 
2.644 1.597 -0.034 0 255 51 78 
2.641 1.599 -0.04 0 255 89 69 
2.64 1.603 -0.045 0 255 170 50 
2.633 1.602 -0.051 0 136 255 16 
2.628 1.603 -0.056 0 51 255 6 
2.631 1.608 -0.062 0 51 255 6 
2.62 1.606 -0.068 0 51 255 6 
2.617 1.607 -0.073 0 51 255 6 
2.614 1.61 -0.079 0 51 255 6 
2.615 1.613 -0.084 0 51 255 6 
2.61 1.615 -0.09 0 51 255 6 
2.609 1.617 -0.096 0 51 255 6 
2.606 1.618 -0.101 0 51 255 6 
2.601 1.619 -0.107 0 59 255 7 
2.603 1.623 -0.113 0 127 255 15 
2.611 1.631 -0.118 0 255 250 31 
2.606 1.632 -0.124 0 255 161 52 
2.605 1.635 -0.13 0 255 119 62 
2.603 1.638 -0.135 0 255 93 68 
2.604 1.642 -0.141 0 255 140 57 
2.605 1.646 -0.147 0 255 255 30 
2.585 1.638 -0.152 0 76 255 9 
2.581 1.639 -0.158 0 59 255 7 
2.579 1.641 -0.163 0 51 255 6 
2.578 1.644 -0.169 0 59 255 7 
2.576 1.646 -0.175 0 59 255 7 
2.574 1.648 -0.18 0 59 255 7 
2.572 1.65 -0.186 0 59 255 7 
2.57 1.652 -0.192 0 59 255 7 
2.569 1.655 -0.197 0 59 255 7 
2.564 1.655 -0.203 0 59 255 7 
2.565 1.659 -0.209 0 59 255 7 
2.565 1.663 -0.215 0 59 255 7 
2.556 1.66 -0.22 0 59 255 7 
2.557 1.664 -0.227 0 59 255 7 
2.557 1.668 -0.232 0 34 255 4 
2.551 1.668 -0.238 0 8 255 1 
2.654 1.587 -0.248 0 255 136 58 
2.655 1.589 -0.242 0 255 38 81 
2.652 1.587 -0.235 0 255 68 74 
2.652 1.588 -0.229 0 255 4 89 
2.65 1.589 -0.222 0 255 68 74 
2.648 1.589 -0.215 0 255 42 80 
2.651 1.59 -0.209 0 255 25 84 
2.649 1.59 -0.203 0 255 68 74 
2.651 1.593 -0.196 0 255 68 74 
2.647 1.591 -0.189 0 255 42 80 
2.647 1.592 -0.183 0 255 4 89 
2.646 1.592 -0.177 0 255 42 80 
2.647 1.594 -0.17 0 255 42 80 
2.646 1.595 -0.164 0 255 42 80 
2.648 1.597 -0.157 0 255 68 74 
2.65 1.6 -0.151 0 255 165 51 
2.64 1.595 -0.144 0 93 255 11 
2.633 1.592 -0.137 0 51 255 6 
2.636 1.594 -0.131 0 51 255 6 
2.636 1.595 -0.125 0 51 255 6 
2.634 1.595 -0.118 0 51 255 6 
2.629 1.593 -0.111 0 51 255 6 
2.629 1.595 -0.105 0 51 255 6 
2.629 1.596 -0.099 0 51 255 6 
2.629 1.597 -0.092 0 51 255 6 
2.631 1.6 -0.086 0 51 255 6 
2.629 1.6 -0.079 0 51 255 6 
2.629 1.601 -0.073 0 51 255 6 
2.628 1.602 -0.066 0 51 255 6 
2.63 1.604 -0.06 0 51 255 6 
2.637 1.61 -0.054 0 102 255 12 
2.632 1.609 -0.047 0 255 191 45 
2.628 1.608 -0.041 0 255 93 68 
2.63 1.61 -0.034 29 255 0 97 
2.629 1.611 -0.028 0 255 8 88 
2.628 1.611 -0.022 17 255 0 94 
2.627 1.612 -0.016 0 255 8 88 
2.626 1.614 -0.009 0 255 8 88 
2.624 1.614 -0.003 0 255 8 88 
2.625 1.616 0.003 0 255 8 88 
2.623 1.616 0.009 0 255 8 88 
2.624 1.618 0.015 0 255 8 88 
2.62 1.617 0.022 0 255 72 73 
2.623 1.62 0.028 0 255 8 88 
2.623 1.621 0.034 17 255 0 94 
2.62 1.622 0.041 0 255 72 73 
2.615 1.62 0.047 0 255 93 68 
2.622 1.624 0.053 0 255 144 56 
2.609 1.619 0.059 0 170 255 20 
2.613 1.623 0.066 0 136 255 16 
2.621 1.629 0.073 0 221 255 26 
2.618 1.629 0.079 0 255 204 42 
2.614 1.628 0.085 0 255 148 55 
2.61 1.628 0.091 0 255 119 62 
2.606 1.627 0.097 0 255 68 74 
2.607 1.63 0.104 0 255 46 79 
2.604 1.63 0.11 0 255 38 81 
2.608 1.633 0.116 0 255 46 79 
2.607 1.635 0.123 0 255 72 73 
2.602 1.633 0.128 0 255 38 81 
2.601 1.635 0.135 0 255 72 73 
2.604 1.638 0.141 0 255 72 73 
2.603 1.64 0.147 0 255 72 73 
2.597 1.637 0.153 0 255 68 74 
2.603 1.643 0.16 0 255 165 51 
2.595 1.641 0.165 0 110 255 13 
2.584 1.636 0.171 0 51 255 6 
2.586 1.64 0.177 0 51 255 6 
2.587 1.641 0.183 0 51 255 6 
2.583 1.641 0.189 0 59 255 7 
2.582 1.642 0.195 0 59 255 7 
2.581 1.644 0.201 0 59 255 7 
2.582 1.646 0.208 0 51 255 6 
2.581 1.648 0.214 0 51 255 6 
2.578 1.648 0.219 0 51 255 6 
2.577 1.65 0.225 0 51 255 6 
2.575 1.651 0.231 0 51 255 6 
2.573 1.651 0.237 0 59 255 7 
2.574 1.654 0.243 0 51 255 6 
2.571 1.655 0.249 0 51 255 6 
2.572 1.656 0.255 0 68 255 8 
2.582 1.665 0.261 0 255 255 30 
2.578 1.664 0.267 0 255 123 61 
2.571 1.663 0.272 0 255 46 79 
2.571 1.665 0.278 0 255 46 79 
2.57 1.667 0.284 0 255 38 81 
2.567 1.667 0.29 0 255 46 79 
2.566 1.668 0.295 0 255 46 79 
2.565 1.67 0.301 0 255 46 79 
2.565 1.673 0.307 0 255 46 79 
2.561 1.675 0.318 0 255 46 79 
2.555 1.673 0.324 0 255 55 77 
2.558 1.677 0.33 0 255 72 73 
2.554 1.677 0.335 0 255 72 73 
2.557 1.683 0.347 0 255 127 60 
2.554 1.684 0.352 0 255 212 40 
2.554 1.686 0.358 0 136 255 16 
2.543 1.682 0.362 0 25 255 3 
2.321 1.894 0.388 0 255 102 66 
2.322 1.891 0.384 0 255 123 61 
2.326 1.889 0.38 0 255 59 76 
2.327 1.886 0.375 0 255 123 61 
2.334 1.888 0.372 0 255 208 41 
2.332 1.884 0.367 0 195 255 23 
2.33 1.878 0.362 0 119 255 14 
2.334 1.878 0.358 0 119 255 14 
2.333 1.873 0.353 0 119 255 14 
2.335 1.871 0.349 0 119 255 14 
2.34 1.871 0.345 0 119 255 14 
2.34 1.867 0.341 0 119 255 14 
2.342 1.865 0.336 0 119 255 14 
2.344 1.861 0.332 0 127 255 15 
2.346 1.859 0.328 0 127 255 15 
2.35 1.859 0.324 0 119 255 14 
2.354 1.858 0.32 0 119 255 14 
2.357 1.851 0.311 0 127 255 15 
2.359 1.849 0.306 0 127 255 15 
2.361 1.847 0.302 0 127 255 15 
2.371 1.849 0.298 0 136 255 16 
2.37 1.845 0.294 0 144 255 17 
2.376 1.845 0.29 0 255 255 30 
2.378 1.841 0.285 0 255 148 55 
2.386 1.834 0.272 0 255 123 61 
2.388 1.832 0.268 0 255 4 89 
2.392 1.831 0.264 0 255 12 87 
2.393 1.827 0.259 0 255 25 84 
2.4 1.827 0.255 0 255 119 62 
2.399 1.822 0.25 0 255 208 41 
2.402 1.82 0.246 0 187 255 22 
2.405 1.817 0.241 0 127 255 15 
2.408 1.806 0.228 0 119 255 14 
2.407 1.801 0.223 0 119 255 14 
2.414 1.8 0.219 0 110 255 13 
2.415 1.796 0.214 0 110 255 13 
2.42 1.796 0.21 0 110 255 13 
2.421 1.792 0.206 0 110 255 13 
2.422 1.788 0.202 0 110 255 13 
2.427 1.786 0.198 0 110 255 13 
2.435 1.787 0.194 0 119 255 14 
2.44 1.785 0.189 0 119 255 14 
2.434 1.777 0.184 0 136 255 16 
2.444 1.779 0.18 0 255 238 34 
2.447 1.776 0.176 0 255 140 57 
2.449 1.773 0.171 0 255 51 78 
2.45 1.767 0.167 38 255 0 99 
2.454 1.766 0.162 0 255 0 90 
2.455 1.761 0.158 38 255 0 99 
2.46 1.759 0.153 0 255 21 85 
2.467 1.76 0.149 0 255 140 57 
2.471 1.757 0.145 0 255 255 30 
2.465 1.748 0.14 0 102 255 12 
2.467 1.745 0.135 0 93 255 11 
2.475 1.745 0.131 0 93 255 11 
2.476 1.74 0.127 0 93 255 11 
2.476 1.735 0.122 0 93 255 11 
2.481 1.733 0.118 0 93 255 11 
2.486 1.731 0.113 0 93 255 11 
2.49 1.729 0.109 0 93 255 11 
2.493 1.726 0.104 0 93 255 11 
2.497 1.723 0.1 0 85 255 10 
2.502 1.721 0.096 0 85 255 10 
2.504 1.717 0.091 0 85 255 10 
2.507 1.714 0.087 0 85 255 10 
2.511 1.711 0.082 0 76 255 9 
2.513 1.707 0.078 0 76 255 9 
2.521 1.707 0.073 0 136 255 16 
2.535 1.711 0.069 0 255 216 39 
2.536 1.705 0.065 0 255 144 56 
2.53 1.696 0.06 0 255 76 72 
2.54 1.697 0.056 0 255 127 60 
2.538 1.69 0.051 0 238 255 28 
2.534 1.682 0.046 0 76 255 9 
2.543 1.683 0.042 0 68 255 8 
2.544 1.677 0.038 0 68 255 8 
2.551 1.677 0.033 0 68 255 8 
2.552 1.671 0.029 0 59 255 7 
2.555 1.669 0.024 0 68 255 8 
2.563 1.668 0.02 0 59 255 7 
2.564 1.664 0.016 0 59 255 7 
2.567 1.659 0.012 0 59 255 7 
2.569 1.655 0.008 0 59 255 7 
2.574 1.652 0.003 0 59 255 7 
2.579 1.65 0 0 59 255 7 
2.581 1.645 -0.004 0 59 255 7 
2.587 1.643 -0.009 0 51 255 6 
2.59 1.639 -0.013 0 51 255 6 
2.598 1.639 -0.017 0 51 255 6 
2.595 1.631 -0.022 0 51 255 6 
2.605 1.631 -0.025 0 76 255 9 
2.621 1.635 -0.03 0 255 246 32 
2.622 1.631 -0.034 0 255 140 57 
2.624 1.626 -0.038 0 255 148 55 
2.632 1.626 -0.043 0 255 242 33 
2.627 1.617 -0.047 0 119 255 14 
2.622 1.609 -0.051 0 51 255 6 
2.627 1.606 -0.055 0 51 255 6 
2.631 1.602 -0.06 0 42 255 5 
2.633 1.597 -0.064 0 42 255 5 
2.636 1.594 -0.068 0 42 255 5 
2.638 1.59 -0.072 0 42 255 5 
2.642 1.586 -0.077 0 42 255 5 
2.646 1.583 -0.081 0 42 255 5 
2.649 1.578 -0.085 0 42 255 5 
2.655 1.575 -0.09 0 42 255 5 
2.66 1.572 -0.094 0 42 255 5 
2.668 1.571 -0.098 0 34 255 4 
2.666 1.564 -0.102 0 42 255 5 
2.682 1.568 -0.107 0 187 255 22 
2.68 1.561 -0.111 0 255 123 61 
2.688 1.559 -0.115 0 255 68 74 
2.693 1.555 -0.12 0 255 63 75 
2.694 1.55 -0.124 0 255 89 69 
2.695 1.545 -0.128 0 255 89 69 
2.7 1.542 -0.132 0 255 106 65 
2.702 1.537 -0.136 0 255 85 70 
2.714 1.537 -0.141 0 255 59 76 
2.718 1.534 -0.145 0 255 63 75 
2.723 1.531 -0.149 0 255 123 61 
2.728 1.528 -0.153 0 255 191 45 
2.736 1.526 -0.158 0 204 255 24 
2.728 1.515 -0.16 0 76 255 9 
2.728 1.509 -0.164 0 34 255 4 
2.73 1.505 -0.168 0 25 255 3 
2.737 1.503 -0.172 0 25 255 3 
2.738 1.498 -0.176 0 25 255 3 
2.752 1.499 -0.181 0 8 255 1 
2.754 1.496 -0.065 0 255 199 43 
2.754 1.504 -0.065 0 255 123 61 
2.751 1.51 -0.064 0 255 123 61 
2.743 1.513 -0.063 0 255 136 58 
2.739 1.518 -0.063 0 255 131 59 
2.73 1.521 -0.062 0 255 131 59 
2.727 1.527 -0.062 0 255 114 63 
2.725 1.533 -0.063 0 255 114 63 
2.714 1.534 -0.062 0 255 123 61 
2.71 1.54 -0.062 0 255 123 61 
2.706 1.545 -0.061 0 255 119 62 
2.699 1.549 -0.061 0 255 119 62 
2.695 1.555 -0.061 0 255 119 62 
2.693 1.56 -0.06 0 255 136 58 
2.689 1.566 -0.06 0 255 229 36 
2.676 1.566 -0.06 0 76 255 9 
2.664 1.567 -0.059 0 59 255 7 
2.664 1.575 -0.059 0 59 255 7 
2.659 1.579 -0.059 0 59 255 7 
2.653 1.583 -0.058 0 51 255 6 
2.65 1.589 -0.058 0 51 255 6 
2.646 1.595 -0.058 0 51 255 6 
2.637 1.597 -0.058 0 51 255 6 
2.631 1.601 -0.058 0 51 255 6 
2.628 1.607 -0.057 0 51 255 6 
2.623 1.611 -0.057 0 51 255 6 
2.615 1.615 -0.057 0 51 255 6 
2.612 1.619 -0.057 0 51 255 6 
2.612 1.627 -0.057 0 85 255 10 
2.615 1.636 -0.057 0 255 174 49 
2.606 1.638 -0.057 0 255 114 63 
2.603 1.644 -0.057 0 255 114 63 
2.6 1.65 -0.057 0 255 140 57 
2.595 1.654 -0.058 0 255 131 59 
2.586 1.657 -0.058 0 255 97 67 
2.581 1.661 -0.058 0 255 97 67 
2.578 1.667 -0.058 0 255 97 67 
2.57 1.67 -0.058 0 255 131 59 
2.558 1.669 -0.058 0 255 51 78 
2.554 1.676 -0.058 0 255 51 78 
2.548 1.679 -0.058 0 255 72 73 
2.548 1.686 -0.058 0 255 51 78 
2.541 1.69 -0.058 0 255 72 73 
2.537 1.694 -0.058 0 255 102 66 
2.54 1.704 -0.058 0 255 212 40 
2.521 1.699 -0.058 0 85 255 10 
2.519 1.706 -0.058 0 68 255 8 
2.515 1.71 -0.059 0 68 255 8 
2.506 1.712 -0.059 0 68 255 8 
2.507 1.72 -0.059 0 68 255 8 
2.502 1.725 -0.059 0 76 255 9 
2.493 1.727 -0.059 0 76 255 9 
2.494 1.734 -0.06 0 85 255 10 
2.486 1.736 -0.06 0 85 255 10 
2.481 1.742 -0.06 0 85 255 10 
2.476 1.745 -0.061 0 93 255 11 
2.468 1.748 -0.061 0 93 255 11 
2.463 1.752 -0.061 0 102 255 12 
2.461 1.758 -0.061 0 93 255 11 
2.46 1.765 -0.062 0 144 255 17 
2.467 1.777 -0.062 0 255 187 46 
2.453 1.775 -0.063 0 255 51 78 
2.448 1.779 -0.063 0 255 42 80 
2.437 1.778 -0.063 0 255 51 78 
2.433 1.783 -0.064 0 255 51 78 
2.436 1.793 -0.065 0 255 34 82 
2.429 1.796 -0.066 0 255 68 74 
2.423 1.799 -0.066 0 255 51 78 
2.415 1.8 -0.067 0 255 46 79 
2.412 1.806 -0.067 0 255 46 79 
2.408 1.81 -0.068 0 255 106 65 
2.406 1.816 -0.068 0 255 55 77 
2.399 1.819 -0.069 0 255 106 65 
2.392 1.822 -0.069 0 255 63 75 
2.389 1.826 -0.07 0 255 89 69 
2.389 1.834 -0.07 0 255 106 65 
2.384 1.836 -0.071 0 255 170 50 
2.379 1.841 -0.072 0 204 255 24 
2.368 1.84 -0.072 0 153 255 18 
2.365 1.845 -0.073 0 153 255 18 
2.368 1.855 -0.074 0 161 255 19 
2.352 1.857 -0.075 0 153 255 18 
2.354 1.867 -0.076 0 170 255 20 
2.337 1.869 -0.077 0 161 255 19 
2.334 1.872 -0.077 0 161 255 19 
2.334 1.88 -0.078 0 187 255 22 
2.332 1.886 -0.079 0 187 255 22 
2.325 1.888 -0.08 0 195 255 23 
2.321 1.891 -0.081 0 195 255 23 
2.318 1.896 -0.081 0 195 255 23 
2.312 1.899 -0.082 0 195 255 23 
2.309 1.904 -0.083 0 229 255 27 
2.307 1.91 -0.085 0 255 157 53 
2.298 1.91 -0.085 0 255 68 74 
2.295 1.915 -0.087 0 255 59 76 
2.292 1.92 -0.087 0 255 59 76 
2.292 1.925 -0.088 0 255 72 73 
2.288 1.93 -0.089 0 255 59 76 
2.282 1.932 -0.09 0 255 59 76 
2.277 1.935 -0.091 0 255 51 78 
2.275 1.94 -0.092 0 255 68 74 
2.272 1.945 -0.093 0 255 59 76 
2.269 1.949 -0.094 0 255 59 76 
2.264 1.952 -0.095 0 255 42 80 
2.261 1.957 -0.096 0 255 59 76 
2.255 1.96 -0.097 0 255 59 76 
2.245 1.957 -0.098 0 255 106 65 
2.242 1.962 -0.099 0 255 106 65 
2.246 1.972 -0.1 0 255 59 76 
2.235 1.97 -0.101 0 255 106 65 
2.234 1.975 -0.102 0 255 119 62 
2.225 1.974 -0.103 0 255 182 47 
2.22 1.977 -0.104 0 255 229 36 
2.215 1.98 -0.105 0 255 225 37 
2.217 1.988 -0.106 0 255 216 39 
2.213 1.991 -0.108 0 255 199 43 
2.205 1.998 -0.11 0 255 148 55 
2.199 2 -0.111 0 255 157 53 
2.203 2.009 -0.112 0 255 127 60 
2.197 2.01 -0.113 0 255 123 61 
2.193 2.013 -0.115 0 255 110 64 
2.183 2.011 -0.116 0 255 72 73 
2.179 2.015 -0.117 0 255 72 73 
2.176 2.019 -0.118 0 255 72 73 
2.17 2.02 -0.119 0 255 59 76 
2.168 2.023 -0.121 0 255 59 76 
2.167 2.028 -0.122 0 255 55 77 
2.163 2.032 -0.123 0 255 55 77 
2.16 2.036 -0.124 0 255 55 77 
2.157 2.046 -0.128 0 255 140 57 
2.155 2.049 -0.13 0 229 255 27 
2.45 1.773 -0.225 0 51 255 6 
2.453 1.769 -0.222 0 170 255 20 
2.47 1.774 -0.219 0 255 199 43 
2.466 1.765 -0.216 0 255 102 66 
2.463 1.757 -0.212 0 255 0 90 
2.468 1.754 -0.209 12 255 0 93 
2.469 1.748 -0.205 0 255 0 90 
2.474 1.746 -0.202 12 255 0 93 
2.483 1.745 -0.199 0 255 29 83 
2.49 1.743 -0.196 0 255 80 71 
2.493 1.738 -0.192 0 255 80 71 
2.493 1.732 -0.189 0 255 29 83 
2.496 1.728 -0.185 0 255 21 85 
2.502 1.726 -0.182 0 255 80 71 
2.505 1.721 -0.178 0 255 38 81 
2.512 1.719 -0.175 0 255 8 88 
2.515 1.715 -0.171 4 255 0 91 
2.515 1.71 -0.168 0 255 46 79 
2.528 1.711 -0.165 0 255 144 56 
2.527 1.705 -0.161 0 195 255 23 
2.525 1.697 -0.157 0 76 255 9 
2.53 1.694 -0.154 0 76 255 9 
2.534 1.691 -0.15 0 68 255 8 
2.539 1.688 -0.146 0 85 255 10 
2.547 1.687 -0.143 0 153 255 18 
2.56 1.688 -0.14 0 255 208 41 
2.56 1.681 -0.136 0 255 127 60 
2.555 1.673 -0.132 0 255 42 80 
2.557 1.668 -0.128 0 255 4 89 
2.563 1.665 -0.124 8 255 0 92 
2.562 1.659 -0.119 0 255 4 89 
2.569 1.657 -0.116 8 255 0 92 
2.569 1.651 -0.112 0 255 12 87 
2.576 1.649 -0.108 0 255 4 89 
2.577 1.643 -0.104 8 255 0 92 
2.589 1.644 -0.1 0 255 21 85 
2.585 1.636 -0.096 0 255 12 87 
2.598 1.638 -0.093 0 255 76 72 
2.604 1.636 -0.089 0 255 148 55 
2.608 1.631 -0.085 0 144 255 17 
2.606 1.624 -0.081 0 51 255 6 
2.61 1.621 -0.077 0 51 255 6 
2.612 1.618 -0.073 0 51 255 6 
2.619 1.616 -0.069 0 51 255 6 
2.624 1.613 -0.065 0 51 255 6 
2.626 1.607 -0.061 0 51 255 6 
2.63 1.604 -0.057 0 42 255 5 
2.637 1.602 -0.053 0 51 255 6 
2.643 1.6 -0.049 0 127 255 15 
2.655 1.6 -0.045 0 255 212 40 
2.652 1.593 -0.041 0 255 136 58 
2.652 1.587 -0.037 0 255 42 80 
2.659 1.585 -0.032 0 255 68 74 
2.664 1.582 -0.028 0 255 55 77 
2.671 1.58 -0.024 0 255 68 74 
2.675 1.577 -0.021 0 255 89 69 
2.678 1.573 -0.017 0 255 46 79 
2.682 1.568 -0.013 0 255 106 65 
2.688 1.566 -0.008 0 255 178 48 
2.694 1.564 -0.004 0 144 255 17 
