ply
format ascii 1.0
element vertex 2450
property float x
property float y
property float z
end_header
12.409 1.457 2.579 
12.522 1.457 2.588 
12.637 1.457 2.597 
12.711 1.453 2.598 
12.774 1.447 2.596 
12.808 1.437 2.588 
12.829 1.426 2.577 
12.845 1.414 2.564 
12.837 1.4 2.547 
12.828 1.385 2.53 
12.828 1.371 2.514 
12.828 1.358 2.498 
12.829 1.345 2.482 
12.85 1.333 2.47 
12.855 1.32 2.455 
12.874 1.308 2.442 
12.874 1.295 2.426 
12.954 1.289 2.424 
12.961 1.276 2.408 
12.967 1.263 2.392 
12.972 1.25 2.376 
12.991 1.238 2.362 
12.994 1.224 2.345 
13.01 1.212 2.33 
13.02 1.199 2.314 
13.021 1.185 2.297 
13.045 1.173 2.283 
13.061 1.161 2.268 
13.045 1.145 2.246 
13.067 1.133 2.232 
13.083 1.121 2.216 
13.104 1.109 2.201 
13.111 1.095 2.183 
13.101 1.08 2.162 
13.119 1.068 2.146 
13.139 1.056 2.13 
13.144 1.042 2.112 
13.153 1.029 2.094 
13.172 1.016 2.077 
13.152 1.001 2.054 
13.18 0.989 2.039 
13.19 0.977 2.02 
13.2 0.963 2.002 
13.217 0.951 1.984 
13.225 0.937 1.965 
13.249 0.925 1.948 
13.253 0.911 1.928 
13.269 0.899 1.909 
13.292 0.886 1.891 
13.292 0.872 1.87 
13.296 0.859 1.849 
13.278 0.844 1.826 
13.301 0.832 1.808 
13.321 0.819 1.789 
13.332 0.806 1.769 
13.352 0.793 1.749 
13.352 0.78 1.728 
13.354 0.766 1.706 
13.377 0.754 1.687 
13.378 0.74 1.664 
13.411 0.728 1.646 
13.439 0.716 1.627 
13.463 0.704 1.607 
13.47 0.69 1.585 
13.489 0.678 1.564 
13.477 0.664 1.54 
13.487 0.651 1.518 
13.477 0.637 1.493 
13.502 0.625 1.473 
13.514 0.612 1.452 
13.524 0.599 1.429 
13.542 0.587 1.407 
13.555 0.574 1.384 
13.569 0.561 1.362 
13.557 0.548 1.337 
13.565 0.535 1.314 
13.588 0.523 1.292 
13.59 0.51 1.268 
13.596 0.497 1.244 
13.612 0.485 1.221 
13.65 0.473 1.199 
13.664 0.461 1.176 
13.667 0.448 1.151 
13.64 0.435 1.125 
13.621 0.421 1.098 
13.601 0.408 1.072 
13.583 0.395 1.046 
13.556 0.382 1.018 
13.55 0.37 0.993 
13.511 0.356 0.965 
13.508 0.344 0.94 
13.534 0.333 0.916 
13.537 0.321 0.891 
13.545 0.309 0.866 
13.553 0.297 0.841 
13.584 0.286 0.817 
11.412 0.23 0.665 
11.168 0.215 0.63 
0 0 0 
10.769 0.189 0.566 
10.426 0.174 0.528 
10.399 0.165 0.505 
10.423 0.156 0.488 
10.613 0.15 0.476 
10.623 0.142 0.456 
10.609 0.133 0.435 
7.796 0.091 0.304 
7.701 0.084 0.285 
7.69 0.077 0.27 
7.635 0.071 0.252 
7.221 0.061 0.226 
6.98 0.054 0.204 
6.94 0.048 0.19 
6.897 0.042 0.175 
6.881 0.037 0.161 
6.897 0.031 0.148 
6.835 0.026 0.133 
6.712 0.02 0.117 
6.652 0.015 0.103 
6.57 0.01 0.089 
6.558 0.005 0.075 
6.557 0.001 0.062 
6.561 -0.003 0.049 
6.537 -0.008 0.036 
6.538 -0.013 0.023 
6.527 -0.017 0.01 
6.521 -0.022 -0.003 
6.513 -0.026 -0.016 
6.493 -0.031 -0.029 
6.495 -0.035 -0.042 
6.494 -0.04 -0.055 
6.493 -0.044 -0.068 
6.474 -0.048 -0.081 
6.461 -0.052 -0.094 
6.458 -0.056 -0.107 
6.449 -0.06 -0.12 
6.409 -0.064 -0.132 
3.401 -0.036 -0.077 
3.352 -0.038 -0.083 
3.422 -0.04 -0.091 
3.428 -0.043 -0.098 
3.431 -0.045 -0.105 
3.435 -0.047 -0.113 
3.435 -0.049 -0.12 
3.438 -0.051 -0.127 
3.443 -0.053 -0.134 
3.437 -0.055 -0.141 
3.437 -0.057 -0.148 
3.446 -0.059 -0.155 
3.444 -0.061 -0.162 
3.44 -0.062 -0.169 
3.449 -0.064 -0.176 
3.449 -0.066 -0.183 
3.449 -0.068 -0.191 
3.45 -0.07 -0.198 
3.452 -0.072 -0.205 
3.453 -0.073 -0.212 
3.451 -0.075 -0.219 
3.452 -0.077 -0.226 
3.456 -0.079 -0.234 
3.453 -0.08 -0.241 
3.465 -0.082 -0.248 
3.458 -0.083 -0.255 
3.45 -0.085 -0.261 
3.414 -0.085 -0.266 
3.343 -0.085 -0.267 
3.215 -0.083 -0.263 
3.084 -0.081 -0.259 
3.124 -0.083 -0.269 
3.248 -0.088 -0.286 
3.342 -0.092 -0.301 
3.384 -0.095 -0.312 
3.41 -0.097 -0.321 
3.43 -0.099 -0.33 
3.458 -0.101 -0.34 
3.464 -0.102 -0.347 
3.463 -0.103 -0.354 
3.471 -0.105 -0.362 
0 0 0 
3.514 -0.109 -0.381 
3.424 -0.107 -0.378 
3.524 -0.111 -0.396 
3.58 -0.114 -0.41 
3.612 -0.116 -0.421 
3.612 -0.117 -0.428 
3.594 -0.118 -0.433 
3.63 -0.12 -0.445 
3.453 -0.115 -0.43 
3.416 -0.115 -0.432 
3.49 -0.118 -0.449 
0 0 0 
0 0 0 
0 0 0 
3.445 -0.12 -0.47 
3.438 -0.121 -0.476 
3.358 -0.119 -0.472 
3.437 -0.123 -0.49 
3.418 -0.123 -0.494 
3.48 -0.126 -0.51 
3.467 -0.126 -0.514 
3.474 -0.127 -0.522 
3.491 -0.128 -0.532 
3.379 -0.125 -0.521 
3.377 -0.125 -0.528 
3.389 -0.126 -0.536 
3.383 -0.127 -0.542 
3.459 -0.13 -0.56 
3.352 -0.126 -0.55 
3.218 -0.122 -0.534 
2.623 -0.1 -0.44 
2.612 -0.1 -0.443 
2.602 -0.099 -0.447 
2.591 -0.099 -0.45 
2.591 -0.1 -0.454 
2.583 -0.1 -0.458 
2.581 -0.1 -0.463 
2.579 -0.1 -0.467 
2.58 -0.1 -0.472 
2.583 -0.101 -0.478 
2.577 -0.101 -0.481 
2.575 -0.101 -0.486 
2.574 -0.101 -0.49 
2.573 -0.101 -0.495 
2.577 -0.101 -0.5 
2.573 -0.101 -0.504 
2.573 -0.101 -0.509 
2.573 -0.101 -0.514 
2.574 -0.102 -0.518 
2.573 -0.102 -0.523 
2.572 -0.102 -0.527 
2.573 -0.102 -0.532 
2.575 -0.102 -0.537 
2.577 -0.102 -0.542 
2.577 -0.102 -0.547 
2.578 -0.102 -0.552 
2.581 -0.102 -0.557 
2.58 -0.102 -0.561 
2.579 -0.102 -0.566 
2.579 -0.102 -0.57 
2.584 -0.102 -0.576 
2.587 -0.102 -0.581 
2.588 -0.102 -0.586 
2.605 -0.102 -0.594 
2.61 -0.102 -0.6 
2.609 -0.102 -0.604 
2.616 -0.102 -0.61 
2.624 -0.102 -0.616 
2.628 -0.102 -0.622 
2.626 -0.102 -0.626 
2.635 -0.102 -0.632 
2.647 -0.102 -0.639 
2.656 -0.102 -0.646 
2.643 -0.102 -0.647 
2.623 -0.101 -0.646 
2.608 -0.1 -0.647 
2.566 -0.098 -0.64 
2.351 -0.089 -0.59 
1.864 -0.07 -0.471 
1.59 -0.06 -0.404 
1.496 -0.056 -0.383 
1.467 -0.055 -0.377 
1.45 -0.054 -0.375 
1.439 -0.053 -0.375 
1.494 -0.055 -0.391 
1.443 -0.053 -0.38 
1.435 -0.052 -0.38 
1.435 -0.052 -0.383 
1.444 -0.052 -0.387 
1.492 -0.054 -0.402 
1.444 -0.052 -0.391 
1.526 -0.054 -0.416 
1.453 -0.051 -0.398 
1.458 -0.051 -0.401 
0 0 0 
0 0 0 
1.462 -0.051 -0.409 
1.488 -0.051 -0.418 
1.484 -0.051 -0.419 
1.485 -0.05 -0.421 
1.486 -0.05 -0.424 
1.479 -0.05 -0.424 
1.479 -0.049 -0.426 
1.482 -0.049 -0.429 
1.476 -0.048 -0.429 
1.478 -0.048 -0.431 
1.483 -0.048 -0.435 
1.47 -0.047 -0.433 
1.474 -0.047 -0.436 
1.471 -0.046 -0.437 
0 0 0 
0 0 0 
0 0 0 
0 0 0 
0 0 0 
0 0 0 
0 0 0 
0 0 0 
0 0 0 
0 0 0 
0 0 0 
0 0 0 
0 0 0 
0 0 0 
0 0 0 
0 0 0 
0 0 0 
0 0 0 
0 0 0 
0 0 0 
0 0 0 
0 0 0 
0 0 0 
0 0 0 
0 0 0 
0 0 0 
0 0 0 
0 0 0 
0 0 0 
0 0 0 
0 0 0 
0 0 0 
0 0 0 
0 0 0 
0 0 0 
0 0 0 
0 0 0 
0 0 0 
0 0 0 
1.429 -0.027 -0.483 
0 0 0 
0 0 0 
1.417 -0.025 -0.482 
1.422 -0.025 -0.484 
1.41 -0.024 -0.481 
0 0 0 
1.418 -0.023 -0.486 
1.419 -0.023 -0.487 
1.404 -0.022 -0.483 
1.431 -0.022 -0.493 
1.409 -0.021 -0.486 
1.408 -0.02 -0.487 
1.407 -0.02 -0.487 
1.411 -0.019 -0.489 
1.419 -0.019 -0.493 
1.437 -0.019 -0.5 
1.412 -0.018 -0.492 
1.413 -0.017 -0.493 
1.418 -0.017 -0.496 
1.412 -0.016 -0.494 
1.407 -0.016 -0.493 
1.427 -0.015 -0.501 
1.431 -0.015 -0.503 
1.435 -0.014 -0.505 
1.423 -0.013 -0.501 
1.417 -0.013 -0.5 
1.435 -0.012 -0.505 
1.408 -0.012 -0.498 
1.449 -0.011 -0.513 
1.414 -0.011 -0.501 
1.405 -0.01 -0.498 
1.41 -0.009 -0.5 
1.416 -0.009 -0.503 
1.409 -0.008 -0.501 
1.43 -0.008 -0.508 
1.412 -0.007 -0.501 
1.408 -0.007 -0.501 
1.448 -0.006 -0.516 
1.468 -0.006 -0.523 
1.412 -0.005 -0.504 
1.41 -0.004 -0.503 
1.432 -0.004 -0.51 
1.413 -0.003 -0.505 
1.439 -0.003 -0.514 
1.441 -0.002 -0.515 
1.384 -0.002 -0.495 
1.461 -0.001 -0.522 
1.52 -0.001 -0.544 
1.407 0 -0.503 
1.487 0 -0.532 
1.524 0 -0.545 
1.529 0.001 -0.547 
1.516 0.002 -0.542 
1.55 0.002 -0.555 
1.642 0.003 -0.587 
1.824 0.004 -0.652 
1.7 0.004 -0.608 
1.721 0.005 -0.615 
1.737 0.006 -0.621 
1.747 0.007 -0.624 
1.747 0.007 -0.624 
1.751 0.008 -0.625 
1.757 0.009 -0.627 
1.755 0.01 -0.626 
1.756 0.01 -0.626 
1.754 0.011 -0.625 
1.758 0.012 -0.626 
1.762 0.012 -0.627 
1.766 0.013 -0.628 
1.759 0.014 -0.625 
1.762 0.014 -0.626 
1.761 0.015 -0.625 
1.761 0.016 -0.624 
1.692 0.016 -0.599 
1.694 0.016 -0.6 
1.704 0.017 -0.602 
1.765 0.018 -0.624 
1.765 0.019 -0.623 
1.7 0.019 -0.599 
1.759 0.02 -0.619 
1.76 0.021 -0.619 
1.684 0.021 -0.591 
1.76 0.022 -0.617 
1.682 0.022 -0.589 
1.762 0.024 -0.616 
1.758 0.024 -0.614 
1.687 0.024 -0.588 
1.76 0.026 -0.613 
1.761 0.026 -0.612 
1.764 0.027 -0.612 
1.764 0.028 -0.611 
1.763 0.028 -0.61 
1.768 0.029 -0.611 
1.765 0.03 -0.609 
1.767 0.03 -0.608 
1.767 0.031 -0.607 
1.767 0.031 -0.606 
1.767 0.032 -0.605 
1.773 0.033 -0.606 
1.765 0.033 -0.602 
1.769 0.034 -0.602 
1.769 0.035 -0.6 
1.767 0.035 -0.599 
1.768 0.036 -0.598 
1.767 0.036 -0.596 
1.764 0.037 -0.593 
1.757 0.037 -0.59 
1.754 0.038 -0.587 
1.748 0.038 -0.584 
1.669 0.037 -0.556 
1.748 0.039 -0.581 
1.672 0.038 -0.554 
1.685 0.039 -0.557 
1.686 0.039 -0.556 
1.677 0.04 -0.551 
1.745 0.042 -0.572 
1.675 0.041 -0.548 
1.677 0.041 -0.547 
1.75 0.044 -0.569 
1.749 0.044 -0.567 
1.752 0.045 -0.566 
1.754 0.045 -0.565 
1.748 0.046 -0.562 
1.748 0.046 -0.56 
1.741 0.046 -0.556 
1.686 0.045 -0.537 
1.739 0.047 -0.552 
1.743 0.048 -0.551 
1.684 0.047 -0.53 
1.743 0.049 -0.547 
1.672 0.047 -0.523 
1.751 0.05 -0.546 
1.751 0.05 -0.544 
1.755 0.051 -0.543 
1.764 0.052 -0.544 
1.761 0.052 -0.541 
1.768 0.053 -0.541 
1.764 0.053 -0.538 
1.764 0.053 -0.536 
1.765 0.054 -0.534 
1.76 0.054 -0.53 
1.759 0.054 -0.528 
1.743 0.054 -0.521 
1.736 0.054 -0.516 
1.722 0.054 -0.51 
1.715 0.054 -0.505 
1.714 0.055 -0.503 
1.714 0.055 -0.501 
1.714 0.055 -0.499 
1.711 0.056 -0.496 
1.71 0.056 -0.493 
1.711 0.056 -0.491 
1.713 0.057 -0.489 
1.709 0.057 -0.486 
1.71 0.057 -0.484 
1.706 0.057 -0.48 
1.704 0.058 -0.477 
1.7 0.058 -0.474 
1.698 0.058 -0.471 
1.701 0.058 -0.469 
1.701 0.058 -0.467 
1.701 0.059 -0.464 
1.703 0.059 -0.462 
1.699 0.059 -0.459 
1.698 0.059 -0.456 
1.7 0.059 -0.454 
1.695 0.06 -0.45 
1.693 0.06 -0.447 
1.695 0.06 -0.445 
1.69 0.06 -0.441 
1.697 0.06 -0.44 
1.697 0.06 -0.438 
1.692 0.06 -0.434 
1.692 0.061 -0.431 
1.695 0.061 -0.429 
1.696 0.061 -0.427 
1.698 0.061 -0.425 
1.691 0.061 -0.42 
1.697 0.061 -0.419 
1.698 0.061 -0.416 
1.699 0.062 -0.414 
1.699 0.062 -0.411 
1.7 0.062 -0.409 
1.701 0.062 -0.406 
1.704 0.062 -0.404 
1.705 0.062 -0.401 
1.706 0.062 -0.399 
1.702 0.062 -0.395 
1.711 0.062 -0.394 
1.707 0.062 -0.39 
1.711 0.062 -0.388 
1.709 0.062 -0.385 
1.708 0.062 -0.382 
1.716 0.062 -0.38 
1.716 0.062 -0.378 
1.687 0.061 -0.368 
1.725 0.062 -0.374 
1.688 0.061 -0.362 
1.691 0.061 -0.36 
1.68 0.061 -0.355 
1.681 0.06 -0.352 
1.693 0.061 -0.352 
1.682 0.06 -0.346 
1.694 0.06 -0.346 
1.71 0.061 -0.346 
1.776 0.063 -0.356 
1.777 0.063 -0.353 
1.782 0.063 -0.351 
2.904 0.102 -0.566 
2.978 0.105 -0.575 
3.012 0.106 -0.576 
3.027 0.106 -0.573 
3.06 0.106 -0.574 
3.076 0.106 -0.571 
3.05 0.105 -0.561 
3.12 0.107 -0.568 
3.165 0.108 -0.57 
3.147 0.107 -0.561 
3.106 0.105 -0.548 
3.278 0.11 -0.572 
3.209 0.107 -0.554 
3.115 0.103 -0.532 
3.116 0.103 -0.526 
3.143 0.103 -0.524 
3.104 0.101 -0.512 
3.134 0.101 -0.51 
3.159 0.101 -0.509 
3.121 0.099 -0.497 
3.142 0.099 -0.494 
3.122 0.098 -0.485 
3.138 0.098 -0.481 
3.108 0.096 -0.47 
3.127 0.095 -0.467 
3.126 0.095 -0.461 
3.111 0.093 -0.453 
3.152 0.093 -0.452 
3.127 0.092 -0.443 
3.141 0.091 -0.438 
3.151 0.091 -0.434 
3.17 0.09 -0.43 
3.142 0.088 -0.42 
3.173 0.088 -0.418 
3.159 0.087 -0.41 
3.169 0.086 -0.405 
3.168 0.085 -0.398 
3.235 0.085 -0.4 
3.379 0.088 -0.411 
3.461 0.089 -0.414 
3.491 0.088 -0.411 
3.503 0.087 -0.405 
3.474 0.085 -0.395 
3.6 0.086 -0.402 
3.902 0.092 -0.428 
0 0 0 
3.48 0.079 -0.367 
3.328 0.074 -0.345 
3.466 0.076 -0.352 
3.483 0.075 -0.347 
3.493 0.073 -0.341 
3.415 0.07 -0.326 
3.382 0.068 -0.316 
3.45 0.067 -0.316 
3.479 0.066 -0.311 
3.667 0.068 -0.32 
3.455 0.062 -0.295 
3.521 0.062 -0.293 
3.466 0.059 -0.282 
3.417 0.056 -0.271 
3.427 0.055 -0.265 
3.421 0.053 -0.257 
3.459 0.052 -0.252 
3.554 0.051 -0.252 
3.496 0.048 -0.241 
3.37 0.045 -0.226 
3.424 0.043 -0.222 
3.291 0.04 -0.207 
3.325 0.038 -0.203 
3.41 0.037 -0.201 
3.446 0.035 -0.196 
3.356 0.033 -0.184 
3.57 0.032 -0.189 
3.465 0.029 -0.176 
3.4 0.027 -0.166 
3.416 0.025 -0.159 
3.413 0.022 -0.152 
3.422 0.02 -0.146 
3.425 0.018 -0.139 
3.424 0.016 -0.132 
3.426 0.013 -0.125 
3.426 0.011 -0.118 
3.423 0.009 -0.111 
3.425 0.006 -0.104 
3.415 0.004 -0.097 
3.584 0.002 -0.095 
3.421 0 -0.084 
3.352 -0.002 -0.075 
6.436 -0.009 -0.132 
6.488 -0.014 -0.12 
6.483 -0.019 -0.107 
6.484 -0.024 -0.094 
6.485 -0.028 -0.081 
6.476 -0.033 -0.068 
6.481 -0.038 -0.055 
6.483 -0.043 -0.042 
6.482 -0.048 -0.029 
6.498 -0.053 -0.016 
6.482 -0.058 -0.003 
6.482 -0.064 0.009 
6.476 -0.069 0.021 
6.475 -0.074 0.034 
6.488 -0.079 0.047 
6.473 -0.084 0.06 
6.491 -0.09 0.073 
6.588 -0.097 0.087 
6.647 -0.103 0.101 
6.856 -0.112 0.117 
6.885 -0.119 0.131 
6.885 -0.125 0.145 
6.891 -0.131 0.158 
6.881 -0.136 0.171 
6.959 -0.144 0.187 
7.118 -0.153 0.205 
7.233 -0.162 0.222 
7.338 -0.171 0.239 
10.572 -0.256 0.365 
10.517 -0.264 0.384 
10.52 -0.274 0.404 
10.525 -0.283 0.424 
10.511 -0.293 0.443 
10.488 -0.302 0.462 
10.485 -0.312 0.483 
10.495 -0.322 0.503 
10.762 -0.34 0.536 
0 0 0 
12.082 -0.405 0.647 
12.064 -0.416 0.669 
12.045 -0.427 0.691 
12.01 -0.437 0.711 
12.015 -0.449 0.733 
11.991 -0.459 0.754 
11.97 -0.471 0.776 
11.97 -0.482 0.798 
11.936 -0.493 0.817 
11.939 -0.505 0.839 
11.913 -0.515 0.859 
11.896 -0.527 0.88 
11.878 -0.538 0.899 
11.87 -0.549 0.92 
11.833 -0.559 0.938 
11.818 -0.571 0.958 
11.803 -0.582 0.978 
11.795 -0.594 0.999 
11.776 -0.605 1.018 
11.752 -0.616 1.036 
11.744 -0.628 1.057 
11.725 -0.638 1.075 
11.711 -0.65 1.094 
11.678 -0.66 1.112 
11.683 -0.673 1.133 
11.663 -0.684 1.151 
11.644 -0.695 1.169 
11.62 -0.706 1.186 
11.611 -0.718 1.205 
11.591 -0.729 1.223 
11.574 -0.741 1.241 
11.549 -0.752 1.258 
11.536 -0.763 1.276 
11.52 -0.774 1.293 
11.511 -0.786 1.311 
11.49 -0.797 1.328 
11.46 -0.808 1.343 
11.452 -0.82 1.361 
11.434 -0.831 1.378 
11.417 -0.842 1.395 
11.398 -0.853 1.411 
11.381 -0.864 1.427 
11.374 -0.877 1.444 
11.345 -0.887 1.459 
11.336 -0.899 1.476 
11.314 -0.91 1.491 
11.295 -0.921 1.506 
11.28 -0.932 1.522 
11.271 -0.944 1.538 
11.25 -0.955 1.553 
11.235 -0.966 1.568 
11.217 -0.977 1.583 
11.203 -0.989 1.598 
11.185 -1 1.613 
11.161 -1.01 1.626 
11.15 -1.021 1.641 
11.13 -1.032 1.655 
11.111 -1.043 1.669 
11.108 -1.055 1.684 
11.082 -1.066 1.697 
11.072 -1.077 1.711 
11.054 -1.088 1.725 
11.047 -1.1 1.74 
11.017 -1.109 1.751 
11 -1.12 1.764 
10.99 -1.132 1.778 
10.977 -1.143 1.791 
10.951 -1.153 1.802 
10.943 -1.164 1.816 
10.923 -1.174 1.828 
10.907 -1.185 1.84 
10.892 -1.196 1.853 
10.881 -1.207 1.865 
10.858 -1.217 1.876 
10.849 -1.228 1.889 
10.833 -1.239 1.901 
10.815 -1.249 1.912 
10.798 -1.259 1.923 
10.779 -1.269 1.934 
10.78 -1.282 1.947 
10.743 -1.289 1.954 
10.737 -1.301 1.967 
10.728 -1.312 1.979 
10.722 -1.323 1.991 
10.696 -1.332 2 
10.689 -1.343 2.01 
10.664 -1.352 2.02 
10.661 -1.364 2.032 
10.637 -1.373 2.04 
10.622 -1.383 2.05 
10.617 -1.394 2.061 
10.585 -1.402 2.067 
10.581 -1.413 2.079 
10.564 -1.422 2.088 
10.546 -1.432 2.096 
10.533 -1.441 2.105 
10.528 -1.452 2.116 
10.51 -1.462 2.124 
10.488 -1.47 2.131 
10.477 -1.48 2.141 
10.457 -1.489 2.148 
10.448 -1.499 2.157 
10.434 -1.508 2.165 
10.422 -1.518 2.173 
10.409 -1.527 2.182 
10.388 -1.535 2.188 
10.381 -1.545 2.197 
10.367 -1.554 2.204 
10.351 -1.563 2.211 
10.318 -1.569 2.214 
10.287 -1.576 2.217 
10.232 -1.578 2.215 
10.183 -1.581 2.215 
10.088 -1.577 2.203 
10.014 -1.576 2.196 
9.814 -1.555 2.162 
9.855 -1.572 2.179 
9.794 -1.572 2.175 
9.725 -1.571 2.168 
9.66 -1.571 2.162 
9.596 -1.57 2.156 
9.535 -1.57 2.15 
9.463 -1.568 2.142 
9.396 -1.566 2.135 
9.324 -1.564 2.126 
9.263 -1.563 2.12 
9.212 -1.563 2.115 
9.168 -1.565 2.112 
9.109 -1.564 2.106 
9.053 -1.563 2.1 
8.999 -1.563 2.094 
8.932 -1.56 2.086 
8.892 -1.562 2.083 
8.828 -1.559 2.074 
8.802 -1.563 2.074 
8.746 -1.562 2.067 
8.716 -1.564 2.066 
8.677 -1.566 2.063 
8.643 -1.567 2.06 
8.594 -1.567 2.054 
8.611 -1.578 2.063 
8.601 -1.584 2.066 
8.53 -1.579 2.055 
8.465 -1.574 2.043 
8.4 -1.57 2.033 
8.373 -1.572 2.032 
8.348 -1.575 2.03 
8.304 -1.574 2.025 
8.273 -1.575 2.022 
8.241 -1.576 2.017 
8.215 -1.579 2.016 
8.189 -1.581 2.014 
8.158 -1.582 2.01 
8.127 -1.583 2.007 
8.101 -1.584 2.004 
8.062 -1.583 1.998 
8.047 -1.587 1.998 
8.036 -1.592 1.999 
7.995 -1.59 1.992 
7.983 -1.594 1.993 
7.968 -1.597 1.992 
7.937 -1.598 1.988 
7.917 -1.6 1.986 
7.889 -1.6 1.982 
7.888 -1.606 1.985 
7.869 -1.609 1.983 
7.839 -1.609 1.978 
7.829 -1.612 1.978 
7.818 -1.616 1.977 
7.822 -1.623 1.981 
7.799 -1.623 1.977 
7.794 -1.628 1.978 
7.774 -1.629 1.976 
7.783 -1.637 1.98 
7.767 -1.639 1.977 
7.779 -1.647 1.982 
7.77 -1.65 1.982 
7.758 -1.653 1.98 
7.747 -1.656 1.979 
7.751 -1.662 1.982 
7.811 -1.679 1.998 
7.804 -1.683 1.998 
7.836 -1.695 2.007 
7.831 -1.699 2.007 
7.815 -1.7 2.004 
7.805 -1.703 2.003 
7.727 -1.69 1.983 
7.722 -1.694 1.983 
7.722 -1.698 1.984 
7.719 -1.702 1.983 
7.689 -1.7 1.976 
7.677 -1.702 1.974 
7.728 -1.717 1.987 
7.725 -1.721 1.987 
7.736 -1.727 1.989 
7.729 -1.73 1.988 
7.743 -1.737 1.991 
7.746 -1.741 1.992 
7.713 -1.738 1.983 
7.684 -1.735 1.975 
7.673 -1.736 1.972 
7.729 -1.752 1.986 
7.735 -1.757 1.987 
7.736 -1.761 1.987 
7.731 -1.764 1.985 
7.715 -1.763 1.98 
7.721 -1.768 1.98 
7.718 -1.77 1.979 
7.744 -1.779 1.984 
7.755 -1.785 1.986 
7.778 -1.793 1.99 
7.795 -1.8 1.994 
7.77 -1.797 1.986 
7.761 -1.798 1.982 
7.757 -1.8 1.979 
7.746 -1.8 1.975 
7.742 -1.801 1.972 
7.753 -1.806 1.973 
7.767 -1.812 1.974 
7.809 -1.824 1.983 
7.786 -1.821 1.975 
7.8 -1.827 1.976 
7.893 -1.851 1.998 
7.902 -1.855 1.998 
7.87 -1.85 1.987 
7.854 -1.847 1.98 
7.857 -1.85 1.978 
7.864 -1.854 1.977 
7.89 -1.861 1.981 
7.919 -1.87 1.985 
7.91 -1.869 1.98 
7.928 -1.875 1.981 
7.958 -1.884 1.985 
7.957 -1.885 1.982 
7.97 -1.889 1.982 
7.992 -1.895 1.983 
8.015 -1.902 1.986 
8.031 -1.907 1.986 
8.045 -1.911 1.986 
8.059 -1.915 1.986 
8.073 -1.919 1.985 
8.099 -1.926 1.987 
8.121 -1.932 1.989 
8.139 -1.937 1.989 
8.18 -1.947 1.994 
8.199 -1.952 1.995 
8.235 -1.961 1.999 
8.252 -1.965 1.998 
8.296 -1.976 2.004 
8.318 -1.981 2.004 
8.351 -1.989 2.007 
8.381 -1.995 2.01 
8.417 -2.004 2.013 
8.446 -2.01 2.015 
8.489 -2.02 2.02 
8.525 -2.028 2.023 
8.56 -2.036 2.026 
8.604 -2.046 2.03 
8.641 -2.054 2.033 
8.693 -2.066 2.04 
8.745 -2.077 2.046 
8.775 -2.083 2.046 
8.815 -2.091 2.05 
8.865 -2.102 2.055 
8.91 -2.111 2.059 
8.955 -2.12 2.063 
8.995 -2.128 2.065 
9.046 -2.139 2.07 
9.1 -2.15 2.076 
9.157 -2.161 2.082 
9.22 -2.174 2.089 
9.268 -2.184 2.092 
9.313 -2.192 2.095 
9.342 -2.196 2.094 
9.38 -2.203 2.095 
9.393 -2.204 2.09 
9.42 -2.207 2.088 
9.42 -2.204 2.08 
9.431 -2.204 2.075 
9.436 -2.202 2.068 
9.441 -2.201 2.06 
9.447 -2.199 2.054 
9.449 -2.196 2.046 
9.459 -2.195 2.039 
9.466 -2.194 2.032 
9.448 -2.186 2.02 
9.469 -2.187 2.016 
9.464 -2.182 2.006 
9.462 -2.178 1.997 
9.477 -2.177 1.991 
9.481 -2.174 1.983 
9.491 -2.173 1.976 
9.492 -2.169 1.967 
9.488 -2.163 1.957 
9.502 -2.162 1.951 
9.504 -2.158 1.942 
9.514 -2.156 1.934 
9.518 -2.152 1.925 
9.514 -2.146 1.915 
9.526 -2.144 1.908 
9.534 -2.141 1.9 
9.539 -2.137 1.891 
9.55 -2.134 1.883 
9.549 -2.129 1.873 
9.553 -2.124 1.864 
9.563 -2.121 1.855 
9.574 -2.118 1.847 
9.562 -2.109 1.835 
9.574 -2.106 1.827 
9.587 -2.103 1.819 
9.588 -2.097 1.809 
9.614 -2.097 1.803 
9.612 -2.09 1.792 
9.624 -2.086 1.784 
9.623 -2.08 1.773 
9.635 -2.076 1.764 
9.636 -2.069 1.754 
9.654 -2.066 1.746 
9.645 -2.058 1.734 
9.663 -2.054 1.726 
9.672 -2.049 1.716 
9.687 -2.045 1.708 
9.679 -2.036 1.695 
9.701 -2.033 1.687 
9.714 -2.029 1.678 
9.707 -2.02 1.666 
9.718 -2.014 1.656 
9.723 -2.007 1.646 
9.745 -2.004 1.638 
9.751 -1.997 1.627 
9.759 -1.991 1.617 
9.761 -1.983 1.605 
9.771 -1.977 1.595 
9.785 -1.971 1.585 
9.791 -1.964 1.575 
9.824 -1.962 1.568 
9.811 -1.951 1.554 
9.824 -1.945 1.544 
9.829 -1.937 1.533 
9.853 -1.932 1.524 
9.851 -1.923 1.512 
9.858 -1.915 1.5 
9.881 -1.91 1.492 
9.887 -1.902 1.48 
9.9 -1.895 1.47 
9.908 -1.887 1.459 
9.931 -1.881 1.449 
9.933 -1.871 1.437 
9.955 -1.866 1.427 
9.96 -1.857 1.416 
9.972 -1.848 1.405 
9.975 -1.839 1.392 
9.995 -1.832 1.382 
10.006 -1.823 1.371 
10.024 -1.816 1.36 
10.028 -1.806 1.348 
10.051 -1.799 1.338 
10.066 -1.791 1.327 
10.071 -1.781 1.315 
10.083 -1.772 1.304 
10.091 -1.762 1.291 
10.101 -1.752 1.279 
10.123 -1.745 1.269 
10.144 -1.737 1.258 
10.156 -1.727 1.247 
10.162 -1.716 1.234 
10.179 -1.707 1.223 
10.201 -1.699 1.212 
10.214 -1.689 1.2 
10.207 -1.676 1.186 
10.24 -1.669 1.176 
10.239 -1.656 1.163 
10.255 -1.646 1.151 
10.278 -1.637 1.14 
10.294 -1.627 1.128 
10.312 -1.617 1.117 
10.328 -1.607 1.105 
10.329 -1.594 1.092 
10.369 -1.587 1.082 
10.373 -1.574 1.069 
10.387 -1.562 1.056 
10.406 -1.551 1.044 
10.418 -1.54 1.032 
10.435 -1.528 1.019 
10.469 -1.519 1.008 
10.467 -1.505 0.995 
10.496 -1.496 0.984 
10.508 -1.483 0.971 
10.532 -1.472 0.96 
10.551 -1.46 0.947 
10.568 -1.448 0.935 
10.573 -1.434 0.922 
10.609 -1.424 0.911 
10.628 -1.412 0.898 
10.636 -1.398 0.885 
10.653 -1.385 0.872 
10.677 -1.373 0.86 
10.7 -1.361 0.848 
10.715 -1.347 0.835 
10.739 -1.335 0.823 
10.758 -1.322 0.81 
10.764 -1.306 0.797 
10.79 -1.294 0.784 
10.812 -1.28 0.772 
10.838 -1.267 0.76 
10.85 -1.252 0.746 
10.873 -1.238 0.733 
10.896 -1.225 0.721 
10.916 -1.21 0.708 
10.933 -1.196 0.695 
10.958 -1.182 0.682 
10.99 -1.169 0.67 
10.998 -1.153 0.657 
11.015 -1.137 0.643 
11.052 -1.124 0.631 
11.06 -1.108 0.618 
11.084 -1.093 0.605 
11.112 -1.078 0.592 
11.154 -1.065 0.581 
11.155 -1.047 0.566 
11.187 -1.032 0.554 
11.199 -1.015 0.54 
11.243 -1.001 0.528 
11.253 -0.983 0.514 
11.274 -0.967 0.501 
11.302 -0.951 0.488 
11.321 -0.934 0.475 
11.355 -0.918 0.462 
11.376 -0.901 0.449 
11.411 -0.885 0.436 
11.424 -0.867 0.422 
11.457 -0.85 0.409 
11.478 -0.832 0.396 
11.5 -0.815 0.383 
11.538 -0.798 0.37 
7.394 -0.499 0.228 
7.334 -0.482 0.217 
7.309 -0.468 0.208 
7.249 -0.452 0.197 
7.137 -0.433 0.185 
7.042 -0.415 0.174 
6.866 -0.393 0.162 
6.871 -0.381 0.154 
6.865 -0.369 0.146 
6.876 -0.357 0.138 
6.876 -0.345 0.13 
6.882 -0.333 0.121 
6.87 -0.321 0.113 
6.877 -0.309 0.105 
6.876 -0.296 0.097 
6.88 -0.285 0.09 
6.877 -0.272 0.082 
6.878 -0.26 0.074 
6.884 -0.248 0.066 
6.781 -0.232 0.057 
6.562 -0.213 0.048 
6.438 -0.197 0.04 
6.421 -0.185 0.033 
6.419 -0.173 0.026 
6.426 -0.162 0.019 
6.42 -0.15 0.011 
6.424 -0.138 0.004 
6.432 -0.127 -0.002 
6.439 -0.115 -0.009 
6.449 -0.104 -0.015 
6.441 -0.092 -0.022 
6.454 -0.08 -0.029 
6.472 -0.068 -0.036 
6.475 -0.056 -0.043 
6.474 -0.044 -0.05 
6.496 -0.032 -0.057 
6.493 -0.02 -0.064 
6.497 -0.008 -0.07 
6.507 0.003 -0.077 
6.515 0.015 -0.084 
6.521 0.027 -0.091 
6.534 0.04 -0.097 
6.542 0.052 -0.104 
6.549 0.064 -0.111 
6.618 0.077 -0.118 
6.763 0.092 -0.128 
6.858 0.106 -0.136 
6.856 0.119 -0.142 
6.856 0.132 -0.149 
6.847 0.144 -0.156 
3.342 0.077 -0.079 
3.307 0.082 -0.081 
3.337 0.089 -0.085 
3.374 0.096 -0.089 
0 0 0 
0 0 0 
3.204 0.11 -0.093 
0 0 0 
3.293 0.125 -0.102 
3.308 0.132 -0.105 
3.267 0.137 -0.107 
3.34 0.146 -0.112 
3.408 0.156 -0.117 
3.22 0.153 -0.114 
3.216 0.159 -0.116 
3.211 0.165 -0.119 
3.207 0.171 -0.121 
3.201 0.177 -0.124 
3.191 0.182 -0.126 
3.188 0.188 -0.128 
3.183 0.194 -0.131 
3.18 0.2 -0.133 
3.169 0.205 -0.135 
3.162 0.211 -0.138 
3.16 0.217 -0.14 
3.151 0.223 -0.142 
3.151 0.228 -0.144 
3.138 0.234 -0.146 
3.134 0.239 -0.148 
3.132 0.245 -0.151 
3.121 0.25 -0.152 
3.12 0.256 -0.155 
3.112 0.261 -0.157 
3.115 0.267 -0.159 
3.108 0.273 -0.161 
3.101 0.278 -0.163 
3.098 0.284 -0.165 
3.089 0.289 -0.166 
3.082 0.294 -0.168 
3.086 0.3 -0.17 
3.076 0.305 -0.172 
3.067 0.31 -0.173 
3.068 0.316 -0.175 
3.056 0.321 -0.177 
3.053 0.326 -0.179 
3.052 0.332 -0.18 
3.042 0.337 -0.182 
3.039 0.342 -0.183 
3.183 0.364 -0.194 
0 0 0 
2.92 0.345 -0.181 
2.978 0.358 -0.187 
0 0 0 
3.081 0.382 -0.197 
0 0 0 
0 0 0 
0 0 0 
0 0 0 
3.257 0.434 -0.217 
3.263 0.441 -0.219 
3.253 0.445 -0.22 
3.248 0.451 -0.222 
3.238 0.456 -0.223 
3.232 0.461 -0.224 
3.226 0.466 -0.225 
3.215 0.47 -0.226 
3.208 0.475 -0.227 
3.195 0.479 -0.228 
3.19 0.484 -0.229 
3.188 0.489 -0.23 
3.178 0.494 -0.231 
3.172 0.499 -0.232 
3.165 0.503 -0.233 
3.161 0.508 -0.234 
3.157 0.513 -0.235 
3.145 0.517 -0.235 
3.149 0.524 -0.237 
3.145 0.529 -0.238 
3.137 0.533 -0.238 
3.136 0.538 -0.239 
3.132 0.543 -0.24 
3.128 0.548 -0.241 
3.126 0.553 -0.242 
3.124 0.558 -0.243 
3.119 0.563 -0.244 
3.112 0.567 -0.244 
3.092 0.569 -0.244 
3.068 0.57 -0.243 
3.033 0.568 -0.241 
3.01 0.569 -0.24 
2.967 0.566 -0.238 
2.872 0.553 -0.231 
2.825 0.549 -0.228 
2.812 0.551 -0.228 
2.811 0.555 -0.229 
2.806 0.559 -0.229 
2.805 0.564 -0.23 
2.811 0.57 -0.231 
2.801 0.572 -0.231 
2.8 0.577 -0.232 
2.799 0.581 -0.232 
2.803 0.587 -0.233 
2.8 0.591 -0.234 
2.803 0.596 -0.234 
2.8 0.6 -0.235 
2.799 0.604 -0.235 
2.795 0.608 -0.236 
2.797 0.613 -0.236 
2.793 0.616 -0.236 
2.789 0.62 -0.237 
2.791 0.624 -0.237 
2.792 0.629 -0.238 
2.787 0.632 -0.238 
2.788 0.637 -0.238 
2.785 0.64 -0.239 
2.785 0.645 -0.239 
2.78 0.648 -0.239 
2.78 0.652 -0.239 
2.778 0.656 -0.24 
2.776 0.66 -0.24 
2.776 0.664 -0.24 
2.776 0.668 -0.24 
2.774 0.671 -0.24 
2.771 0.675 -0.24 
2.772 0.679 -0.241 
2.771 0.683 -0.241 
2.768 0.686 -0.241 
2.771 0.691 -0.241 
2.768 0.694 -0.241 
2.764 0.697 -0.241 
2.765 0.701 -0.241 
2.761 0.704 -0.241 
2.76 0.707 -0.241 
2.764 0.712 -0.242 
2.758 0.715 -0.241 
2.757 0.718 -0.241 
2.756 0.722 -0.241 
2.753 0.725 -0.241 
2.753 0.728 -0.241 
2.754 0.732 -0.241 
2.753 0.735 -0.241 
2.75 0.738 -0.241 
2.751 0.742 -0.241 
2.748 0.745 -0.24 
2.747 0.748 -0.24 
2.746 0.751 -0.24 
2.745 0.754 -0.24 
2.742 0.757 -0.239 
2.739 0.759 -0.239 
2.738 0.762 -0.239 
2.741 0.766 -0.239 
2.737 0.768 -0.239 
2.736 0.771 -0.238 
2.735 0.774 -0.238 
2.738 0.778 -0.238 
2.733 0.78 -0.237 
2.732 0.783 -0.237 
2.734 0.786 -0.237 
2.729 0.788 -0.236 
2.732 0.792 -0.236 
2.726 0.793 -0.235 
2.729 0.797 -0.235 
2.726 0.799 -0.235 
2.723 0.801 -0.234 
2.726 0.805 -0.234 
2.723 0.807 -0.233 
2.721 0.809 -0.233 
2.72 0.811 -0.232 
2.72 0.814 -0.232 
2.721 0.817 -0.232 
2.724 0.82 -0.232 
2.714 0.82 -0.23 
2.72 0.824 -0.23 
2.718 0.826 -0.23 
2.718 0.829 -0.229 
2.721 0.832 -0.229 
2.715 0.833 -0.228 
2.715 0.835 -0.227 
2.718 0.839 -0.227 
2.716 0.84 -0.226 
2.716 0.842 -0.226 
2.716 0.845 -0.225 
2.71 0.845 -0.224 
2.714 0.849 -0.224 
2.712 0.85 -0.223 
2.709 0.851 -0.222 
2.714 0.855 -0.222 
2.71 0.856 -0.221 
2.707 0.857 -0.22 
2.703 0.857 -0.219 
2.706 0.86 -0.219 
2.714 0.865 -0.219 
2.705 0.864 -0.217 
2.707 0.866 -0.217 
2.706 0.868 -0.216 
2.706 0.869 -0.215 
2.7 0.869 -0.214 
2.699 0.871 -0.213 
2.705 0.874 -0.213 
2.708 0.877 -0.213 
2.704 0.877 -0.211 
2.705 0.879 -0.211 
2.699 0.878 -0.209 
2.703 0.881 -0.209 
2.702 0.882 -0.208 
2.698 0.882 -0.207 
2.698 0.883 -0.206 
2.698 0.885 -0.205 
2.698 0.886 -0.205 
2.693 0.886 -0.203 
2.695 0.887 -0.202 
2.696 0.889 -0.202 
2.694 0.889 -0.201 
2.696 0.891 -0.2 
2.693 0.891 -0.199 
2.693 0.892 -0.198 
2.692 0.893 -0.197 
2.69 0.893 -0.196 
2.694 0.895 -0.195 
2.696 0.897 -0.194 
2.692 0.896 -0.193 
2.693 0.897 -0.192 
2.689 0.897 -0.191 
2.691 0.898 -0.19 
2.69 0.898 -0.189 
2.693 0.9 -0.188 
2.69 0.899 -0.187 
2.693 0.901 -0.186 
2.692 0.901 -0.185 
2.691 0.901 -0.184 
2.691 0.902 -0.183 
2.69 0.902 -0.182 
2.69 0.902 -0.181 
2.688 0.902 -0.18 
2.688 0.902 -0.179 
2.687 0.902 -0.178 
2.684 0.901 -0.176 
2.69 0.903 -0.176 
2.687 0.902 -0.174 
2.685 0.901 -0.173 
2.689 0.903 -0.172 
2.689 0.903 -0.171 
2.691 0.903 -0.17 
2.682 0.9 -0.169 
2.689 0.903 -0.168 
2.686 0.902 -0.167 
2.688 0.902 -0.166 
2.686 0.901 -0.164 
2.687 0.901 -0.163 
2.687 0.901 -0.162 
2.687 0.9 -0.161 
2.689 0.901 -0.16 
2.687 0.9 -0.159 
2.689 0.9 -0.158 
2.685 0.898 -0.156 
2.688 0.898 -0.155 
2.683 0.896 -0.154 
2.685 0.896 -0.153 
2.685 0.895 -0.151 
2.685 0.895 -0.15 
2.691 0.896 -0.149 
2.686 0.893 -0.148 
2.689 0.894 -0.147 
2.686 0.892 -0.146 
2.687 0.891 -0.144 
2.685 0.89 -0.143 
2.686 0.889 -0.142 
2.686 0.888 -0.141 
2.689 0.888 -0.14 
2.687 0.886 -0.138 
2.687 0.885 -0.137 
2.687 0.884 -0.136 
2.693 0.884 -0.135 
2.69 0.882 -0.133 
2.693 0.882 -0.132 
2.689 0.879 -0.131 
2.688 0.878 -0.13 
2.684 0.875 -0.128 
2.688 0.875 -0.127 
2.689 0.874 -0.126 
2.689 0.872 -0.125 
2.688 0.87 -0.123 
2.685 0.868 -0.122 
2.688 0.867 -0.121 
2.688 0.866 -0.12 
2.686 0.863 -0.118 
2.687 0.862 -0.117 
2.688 0.86 -0.116 
2.687 0.858 -0.114 
2.689 0.857 -0.113 
2.694 0.857 -0.112 
2.695 0.855 -0.111 
2.7 0.855 -0.11 
2.694 0.851 -0.108 
2.701 0.851 -0.107 
2.697 0.848 -0.106 
2.694 0.845 -0.105 
2.696 0.843 -0.103 
2.691 0.839 -0.102 
2.693 0.838 -0.101 
2.693 0.836 -0.1 
2.69 0.832 -0.098 
2.695 0.832 -0.097 
2.69 0.828 -0.096 
2.677 0.821 -0.094 
2.668 0.816 -0.092 
2.614 0.797 -0.089 
0 0 0 
0 0 0 
0 0 0 
2.695 0.812 -0.087 
5.543 1.664 -0.177 
5.543 1.659 -0.174 
5.562 1.659 -0.172 
5.578 1.658 -0.17 
5.608 1.661 -0.168 
5.631 1.662 -0.167 
5.649 1.662 -0.164 
5.681 1.665 -0.163 
5.737 1.675 -0.162 
5.806 1.689 -0.161 
5.805 1.682 -0.158 
5.816 1.679 -0.156 
5.814 1.672 -0.153 
5.835 1.671 -0.151 
5.871 1.675 -0.15 
5.891 1.674 -0.147 
5.935 1.679 -0.146 
5.984 1.686 -0.144 
5.992 1.681 -0.142 
5.983 1.671 -0.139 
5.994 1.667 -0.137 
5.997 1.66 -0.134 
6 1.654 -0.132 
6.012 1.649 -0.129 
6.02 1.644 -0.127 
6.034 1.64 -0.125 
6.032 1.632 -0.122 
6.05 1.629 -0.12 
6.043 1.619 -0.117 
6.044 1.611 -0.115 
6.037 1.601 -0.112 
6.049 1.596 -0.11 
6.051 1.588 -0.107 
6.07 1.585 -0.105 
6.07 1.577 -0.103 
6.084 1.572 -0.1 
6.088 1.564 -0.098 
6.087 1.556 -0.096 
6.087 1.547 -0.093 
6.079 1.536 -0.091 
6.074 1.526 -0.088 
6.062 1.514 -0.086 
6.038 1.499 -0.083 
6.018 1.485 -0.081 
5.998 1.472 -0.078 
5.978 1.458 -0.076 
5.97 1.447 -0.073 
5.928 1.428 -0.071 
5.927 1.418 -0.068 
5.903 1.404 -0.066 
5.88 1.389 -0.064 
5.856 1.374 -0.061 
5.846 1.363 -0.059 
5.837 1.351 -0.057 
5.806 1.335 -0.055 
5.797 1.324 -0.053 
5.765 1.307 -0.05 
5.75 1.295 -0.048 
5.729 1.28 -0.046 
5.721 1.269 -0.045 
5.705 1.256 -0.042 
5.66 1.237 -0.04 
5.659 1.228 -0.039 
5.632 1.212 -0.037 
5.617 1.2 -0.035 
5.578 1.182 -0.033 
5.563 1.169 -0.031 
5.593 1.166 -0.03 
5.568 1.152 -0.028 
5.566 1.141 -0.027 
5.612 1.141 -0.025 
5.835 1.177 -0.025 
6.271 1.254 -0.025 
6.285 1.246 -0.023 
6.289 1.235 -0.022 
6.307 1.228 -0.02 
6.289 1.213 -0.019 
6.307 1.205 -0.017 
6.312 1.195 -0.016 
6.334 1.188 -0.014 
6.324 1.174 -0.013 
6.326 1.163 -0.011 
6.351 1.156 -0.01 
6.346 1.144 -0.009 
6.171 1.101 -0.007 
5.841 1.031 -0.005 
5.854 1.023 -0.004 
5.859 1.013 -0.003 
5.859 1.002 -0.002 
5.849 0.989 -0.001 
5.874 0.982 0 
5.882 0.973 0 
5.892 0.963 0.001 
5.884 0.951 0.002 
5.915 0.945 0.003 
5.895 0.93 0.004 
5.916 0.922 0.005 
5.917 0.911 0.005 
5.934 0.902 0.006 
5.938 0.892 0.007 
5.941 0.88 0.008 
5.937 0.868 0.008 
5.964 0.861 0.009 
5.944 0.846 0.01 
5.97 0.838 0.01 
5.973 0.827 0.011 
5.978 0.816 0.011 
5.99 0.805 0.012 
5.99 0.794 0.012 
5.992 0.782 0.012 
6 0.771 0.013 
6.007 0.76 0.013 
6.014 0.749 0.013 
6.027 0.739 0.014 
6.029 0.727 0.014 
6.029 0.715 0.014 
6.045 0.704 0.014 
6.044 0.692 0.014 
6.037 0.679 0.014 
6.053 0.669 0.014 
6.062 0.657 0.014 
6.076 0.647 0.014 
6.085 0.635 0.014 
6.087 0.623 0.014 
6.092 0.611 0.014 
6.115 0.601 0.014 
6.115 0.588 0.014 
6.142 0.578 0.013 
6.138 0.566 0.013 
6.134 0.552 0.012 
6.137 0.54 0.012 
6.148 0.528 0.012 
6.195 0.519 0.011 
6.485 0.53 0.011 
6.486 0.517 0.01 
6.451 0.501 0.01 
6.442 0.487 0.009 
6.415 0.471 0.008 
6.399 0.457 0.007 
6.382 0.443 0.006 
6.357 0.427 0.006 
6.328 0.412 0.005 
6.324 0.399 0.004 
6.291 0.384 0.003 
6.261 0.369 0.002 
6.254 0.355 0 
6.24 0.342 0 
6.208 0.327 -0.001 
6.19 0.313 -0.002 
6.132 0.297 -0.003 
6.138 0.284 -0.004 
6.136 0.271 -0.006 
6.328 0.267 -0.007 
6.887 0.276 -0.01 
6.913 0.262 -0.011 
6.919 0.248 -0.013 
6.943 0.234 -0.015 
6.946 0.219 -0.017 
6.964 0.205 -0.019 
6.97 0.191 -0.02 
6.835 0.173 -0.022 
6.882 0.159 -0.024 
6.888 0.145 -0.026 
6.883 0.13 -0.028 
6.884 0.116 -0.03 
6.887 0.101 -0.032 
6.889 0.087 -0.035 
6.674 0.07 -0.036 
6.564 0.055 -0.037 
6.544 0.041 -0.04 
6.529 0.027 -0.042 
6.528 0.013 -0.044 
6.522 0 -0.046 
6.505 -0.013 -0.049 
6.498 -0.027 -0.051 
6.485 -0.04 -0.053 
6.471 -0.054 -0.056 
6.454 -0.067 -0.058 
6.443 -0.08 -0.061 
6.424 -0.094 -0.063 
6.414 -0.107 -0.066 
6.413 -0.12 -0.068 
6.408 -0.133 -0.071 
6.403 -0.147 -0.074 
6.409 -0.16 -0.077 
6.425 -0.174 -0.08 
6.442 -0.188 -0.083 
6.652 -0.208 -0.089 
6.283 -0.209 -0.087 
0 0 0 
5.031 -0.188 -0.074 
5.047 -0.199 -0.077 
5.05 -0.21 -0.079 
5.058 -0.22 -0.082 
5.037 -0.23 -0.084 
5.005 -0.239 -0.086 
4.907 -0.244 -0.087 
5.015 -0.26 -0.092 
5.013 -0.27 -0.094 
5.009 -0.28 -0.097 
5.009 -0.291 -0.1 
5.007 -0.301 -0.102 
5.01 -0.311 -0.105 
4.968 -0.319 -0.107 
4.947 -0.327 -0.11 
0 0 0 
3.851 -0.27 -0.09 
3.638 -0.263 -0.087 
3.442 -0.255 -0.084 
3.506 -0.267 -0.088 
3.473 -0.272 -0.089 
3.485 -0.28 -0.091 
3.489 -0.287 -0.094 
3.493 -0.294 -0.096 
3.499 -0.302 -0.098 
3.496 -0.308 -0.1 
3.501 -0.315 -0.103 
3.508 -0.323 -0.105 
3.514 -0.331 -0.108 
3.511 -0.337 -0.11 
3.509 -0.344 -0.112 
3.517 -0.352 -0.115 
3.519 -0.359 -0.117 
3.518 -0.366 -0.12 
3.518 -0.372 -0.122 
3.519 -0.379 -0.124 
3.52 -0.386 -0.127 
3.519 -0.393 -0.129 
3.531 -0.401 -0.132 
3.525 -0.407 -0.134 
3.516 -0.412 -0.137 
0 0 0 
4.109 -0.498 -0.166 
4.139 -0.509 -0.17 
4.156 -0.52 -0.174 
4.157 -0.527 -0.177 
4.159 -0.535 -0.18 
4.162 -0.543 -0.183 
4.163 -0.551 -0.186 
4.168 -0.56 -0.19 
4.176 -0.569 -0.193 
4.188 -0.578 -0.197 
4.196 -0.587 -0.2 
4.195 -0.594 -0.204 
4.193 -0.602 -0.207 
4.177 -0.607 -0.209 
4.149 -0.611 -0.211 
4.113 -0.613 -0.212 
4.008 -0.604 -0.21 
3.961 -0.604 -0.211 
3.95 -0.61 -0.213 
3.945 -0.616 -0.216 
3.944 -0.623 -0.22 
3.95 -0.631 -0.223 
3.954 -0.638 -0.226 
3.956 -0.646 -0.23 
3.966 -0.654 -0.234 
3.968 -0.661 -0.237 
4.06 -0.684 -0.246 
3.978 -0.677 -0.244 
4.079 -0.701 -0.254 
4.158 -0.722 -0.262 
4.195 -0.735 -0.268 
4.25 -0.752 -0.275 
4.295 -0.767 -0.282 
4.285 -0.772 -0.285 
4.277 -0.778 -0.288 
4.582 -0.841 -0.312 
4.599 -0.852 -0.317 
4.524 -0.846 -0.316 
4.528 -0.854 -0.32 
4.499 -0.856 -0.322 
4.546 -0.872 -0.329 
4.586 -0.887 -0.336 
4.614 -0.9 -0.342 
4.609 -0.906 -0.346 
4.589 -0.909 -0.348 
4.544 -0.907 -0.348 
4.443 -0.894 -0.345 
3.392 -0.688 -0.266 
3.384 -0.691 -0.268 
3.375 -0.695 -0.27 
3.368 -0.699 -0.273 
3.356 -0.701 -0.275 
3.353 -0.706 -0.278 
3.353 -0.711 -0.28 
3.343 -0.714 -0.283 
3.336 -0.717 -0.285 
3.333 -0.721 -0.288 
3.332 -0.726 -0.29 
3.323 -0.729 -0.293 
3.319 -0.732 -0.295 
3.305 -0.734 -0.297 
3.313 -0.741 -0.301 
3.305 -0.744 -0.303 
3.301 -0.747 -0.305 
3.3 -0.751 -0.308 
3.302 -0.756 -0.311 
3.301 -0.761 -0.314 
3.311 -0.767 -0.318 
3.306 -0.771 -0.32 
3.32 -0.779 -0.325 
3.434 -0.81 -0.339 
4.214 -1 -0.42 
4.215 -1.005 -0.423 
4.245 -1.018 -0.43 
4.258 -1.026 -0.435 
4.268 -1.034 -0.44 
4.276 -1.042 -0.445 
4.279 -1.048 -0.449 
4.285 -1.055 -0.453 
4.292 -1.062 -0.458 
4.296 -1.068 -0.462 
4.302 -1.075 -0.466 
4.307 -1.081 -0.471 
4.303 -1.085 -0.474 
4.309 -1.092 -0.478 
4.322 -1.1 -0.484 
4.325 -1.106 -0.488 
4.307 -1.106 -0.489 
4.271 -1.102 -0.489 
4.232 -1.097 -0.488 
4.24 -1.103 -0.493 
4.129 -1.079 -0.483 
4.099 -1.076 -0.483 
4.09 -1.078 -0.486 
4.141 -1.096 -0.496 
4.241 -1.126 -0.51 
4.336 -1.156 -0.526 
4.369 -1.17 -0.534 
4.41 -1.185 -0.543 
4.421 -1.192 -0.548 
4.368 -1.183 -0.545 
4.341 -1.179 -0.545 
4.305 -1.174 -0.544 
4.242 -1.161 -0.54 
4.215 -1.157 -0.54 
4.202 -1.158 -0.542 
4.19 -1.158 -0.544 
4.187 -1.161 -0.547 
4.185 -1.164 -0.55 
4.182 -1.168 -0.553 
4.172 -1.168 -0.555 
4.177 -1.173 -0.559 
4.172 -1.175 -0.562 
4.174 -1.18 -0.566 
4.175 -1.183 -0.569 
4.173 -1.186 -0.572 
4.168 -1.188 -0.575 
4.172 -1.193 -0.578 
4.164 -1.194 -0.581 
4.162 -1.196 -0.584 
4.15 -1.196 -0.585 
4.119 -1.19 -0.584 
4.098 -1.187 -0.584 
4.081 -1.185 -0.585 
4.079 -1.187 -0.588 
4.06 -1.185 -0.588 
4.054 -1.186 -0.59 
4.028 -1.181 -0.59 
3.997 -1.174 -0.588 
3.993 -1.176 -0.59 
3.983 -1.175 -0.592 
3.982 -1.177 -0.595 
3.978 -1.179 -0.597 
3.974 -1.18 -0.599 
3.974 -1.182 -0.602 
3.963 -1.181 -0.603 
3.961 -1.183 -0.606 
3.958 -1.184 -0.608 
3.945 -1.182 -0.609 
3.937 -1.182 -0.61 
3.925 -1.18 -0.611 
3.916 -1.179 -0.613 
3.901 -1.177 -0.613 
3.881 -1.173 -0.612 
3.867 -1.17 -0.613 
3.859 -1.169 -0.614 
3.844 -1.166 -0.614 
3.837 -1.166 -0.616 
3.83 -1.165 -0.617 
3.82 -1.164 -0.618 
3.807 -1.161 -0.618 
3.809 -1.163 -0.621 
3.798 -1.161 -0.622 
3.787 -1.159 -0.622 
3.785 -1.16 -0.624 
3.773 -1.157 -0.624 
3.766 -1.156 -0.625 
3.757 -1.155 -0.626 
3.745 -1.152 -0.627 
3.737 -1.15 -0.627 
3.732 -1.15 -0.629 
3.719 -1.147 -0.629 
3.712 -1.145 -0.629 
3.705 -1.144 -0.63 
3.7 -1.143 -0.632 
3.693 -1.141 -0.632 
3.684 -1.139 -0.633 
3.661 -1.133 -0.631 
3.656 -1.132 -0.632 
3.651 -1.131 -0.633 
3.645 -1.129 -0.634 
3.635 -1.126 -0.634 
3.63 -1.125 -0.635 
3.627 -1.124 -0.636 
3.622 -1.123 -0.637 
3.617 -1.122 -0.638 
3.61 -1.12 -0.638 
3.608 -1.119 -0.64 
3.624 -1.124 -0.644 
3.622 -1.123 -0.646 
3.618 -1.122 -0.646 
3.619 -1.122 -0.648 
3.62 -1.123 -0.65 
3.619 -1.122 -0.651 
3.619 -1.122 -0.653 
3.62 -1.122 -0.655 
3.618 -1.121 -0.656 
3.622 -1.122 -0.658 
3.624 -1.122 -0.66 
3.623 -1.121 -0.661 
3.627 -1.122 -0.663 
3.637 -1.124 -0.666 
3.641 -1.125 -0.668 
3.658 -1.13 -0.673 
3.681 -1.136 -0.678 
3.714 -1.145 -0.685 
3.756 -1.157 -0.694 
3.813 -1.174 -0.706 
3.848 -1.184 -0.714 
3.876 -1.191 -0.72 
3.904 -1.199 -0.727 
3.928 -1.205 -0.732 
3.943 -1.209 -0.736 
3.963 -1.214 -0.741 
3.992 -1.221 -0.748 
4.013 -1.226 -0.752 
4.022 -1.228 -0.755 
4.028 -1.228 -0.757 
4.034 -1.228 -0.76 
4.034 -1.227 -0.76 
4.046 -1.228 -0.764 
4.046 -1.227 -0.764 
4.053 -1.227 -0.766 
4.053 -1.226 -0.767 
4.054 -1.224 -0.769 
4.06 -1.224 -0.77 
4.064 -1.223 -0.772 
4.067 -1.222 -0.773 
4.066 -1.22 -0.773 
4.067 -1.218 -0.774 
4.072 -1.217 -0.776 
4.08 -1.218 -0.778 
4.077 -1.214 -0.778 
4.08 -1.213 -0.779 
4.083 -1.212 -0.78 
4.084 -1.209 -0.781 
4.087 -1.208 -0.782 
4.089 -1.206 -0.782 
4.093 -1.205 -0.783 
4.094 -1.203 -0.784 
4.097 -1.2 -0.784 
4.104 -1.2 -0.786 
4.1 -1.196 -0.785 
4.109 -1.196 -0.787 
4.111 -1.193 -0.788 
4.114 -1.192 -0.788 
4.115 -1.189 -0.789 
4.116 -1.186 -0.789 
4.117 -1.183 -0.789 
4.118 -1.181 -0.789 
4.117 -1.177 -0.789 
4.116 -1.174 -0.788 
4.115 -1.17 -0.788 
4.104 -1.164 -0.786 
4.098 -1.159 -0.784 
4.087 -1.153 -0.782 
4.063 -1.142 -0.777 
4.041 -1.133 -0.773 
4.035 -1.128 -0.771 
4.008 -1.117 -0.766 
3.987 -1.107 -0.761 
3.969 -1.099 -0.757 
3.95 -1.09 -0.753 
3.915 -1.077 -0.746 
3.881 -1.064 -0.739 
3.851 -1.052 -0.732 
3.837 -1.045 -0.729 
3.811 -1.034 -0.723 
3.795 -1.026 -0.72 
3.768 -1.016 -0.714 
3.719 -0.999 -0.704 
3.588 -0.96 -0.678 
3.516 -0.937 -0.664 
3.497 -0.929 -0.66 
3.488 -0.923 -0.657 
3.479 -0.917 -0.654 
3.469 -0.911 -0.652 
3.468 -0.907 -0.651 
3.462 -0.901 -0.648 
3.458 -0.897 -0.647 
3.453 -0.892 -0.645 
3.448 -0.887 -0.643 
3.449 -0.883 -0.642 
3.447 -0.879 -0.641 
3.447 -0.875 -0.639 
3.447 -0.871 -0.638 
3.45 -0.868 -0.638 
3.45 -0.864 -0.637 
3.458 -0.862 -0.637 
3.451 -0.857 -0.634 
3.459 -0.855 -0.635 
3.461 -0.851 -0.634 
3.462 -0.848 -0.632 
3.47 -0.845 -0.632 
3.469 -0.841 -0.631 
3.475 -0.838 -0.63 
3.481 -0.835 -0.63 
3.484 -0.832 -0.629 
3.485 -0.828 -0.628 
3.49 -0.825 -0.627 
3.497 -0.822 -0.626 
3.503 -0.819 -0.626 
3.508 -0.816 -0.625 
3.507 -0.811 -0.623 
3.518 -0.809 -0.623 
3.488 -0.798 -0.616 
3.414 -0.777 -0.602 
3.329 -0.753 -0.585 
3.33 -0.749 -0.583 
3.327 -0.744 -0.581 
3.321 -0.738 -0.578 
3.323 -0.734 -0.576 
3.317 -0.729 -0.573 
3.316 -0.724 -0.571 
3.327 -0.722 -0.571 
3.329 -0.718 -0.57 
3.337 -0.715 -0.569 
3.346 -0.712 -0.568 
3.35 -0.709 -0.567 
3.359 -0.706 -0.567 
3.364 -0.702 -0.565 
3.371 -0.699 -0.564 
3.372 -0.695 -0.562 
3.377 -0.691 -0.561 
3.382 -0.687 -0.559 
3.385 -0.683 -0.557 
3.393 -0.68 -0.556 
3.4 -0.677 -0.555 
3.403 -0.672 -0.553 
3.406 -0.668 -0.551 
3.413 -0.665 -0.55 
3.416 -0.66 -0.548 
3.421 -0.657 -0.546 
3.429 -0.653 -0.545 
3.436 -0.649 -0.543 
3.437 -0.645 -0.541 
3.448 -0.642 -0.54 
3.45 -0.637 -0.537 
3.459 -0.634 -0.536 
3.464 -0.629 -0.534 
3.471 -0.625 -0.532 
3.472 -0.62 -0.529 
3.479 -0.616 -0.528 
3.482 -0.612 -0.525 
3.484 -0.607 -0.522 
3.491 -0.603 -0.52 
3.508 -0.601 -0.52 
3.509 -0.595 -0.517 
3.501 -0.589 -0.513 
3.482 -0.58 -0.507 
3.488 -0.576 -0.505 
2.931 -0.479 -0.421 
2.539 -0.411 -0.362 
2.488 -0.399 -0.353 
2.536 -0.403 -0.357 
2.521 -0.397 -0.353 
2.505 -0.391 -0.348 
2.506 -0.387 -0.346 
2.495 -0.381 -0.342 
2.477 -0.375 -0.337 
2.478 -0.371 -0.335 
2.489 -0.369 -0.334 
2.504 -0.367 -0.333 
2.517 -0.365 -0.332 
2.512 -0.361 -0.329 
2.513 -0.357 -0.327 
2.531 -0.355 -0.326 
2.535 -0.352 -0.324 
2.542 -0.349 -0.322 
2.626 -0.356 -0.33 
2.648 -0.355 -0.33 
2.611 -0.346 -0.323 
2.565 -0.336 -0.314 
2.578 -0.334 -0.313 
2.581 -0.33 -0.311 
2.584 -0.326 -0.308 
2.673 -0.333 -0.316 
2.949 -0.363 -0.345 
3.035 -0.369 -0.352 
3.282 -0.394 -0.377 
3.524 -0.418 -0.4 
3.583 -0.419 -0.403 
3.606 -0.416 -0.401 
3.595 -0.409 -0.396 
3.513 -0.394 -0.383 
0 0 0 
0 0 0 
3.471 -0.373 -0.366 
3.542 -0.375 -0.369 
3.534 -0.369 -0.364 
3.436 -0.353 -0.349 
3.463 -0.351 -0.348 
2.843 -0.283 -0.282 
2.938 -0.288 -0.288 
2.692 -0.26 -0.26 
2.686 -0.255 -0.256 
2.678 -0.25 -0.252 
2.696 -0.247 -0.25 
2.715 -0.245 -0.248 
2.611 -0.231 -0.236 
2.65 -0.231 -0.236 
2.609 -0.223 -0.229 
2.712 -0.228 -0.234 
2.595 -0.214 -0.221 
2.593 -0.21 -0.217 
2.672 -0.212 -0.22 
2.616 -0.203 -0.212 
2.626 -0.2 -0.209 
2.613 -0.195 -0.204 
2.596 -0.19 -0.2 
2.723 -0.195 -0.206 
2.681 -0.187 -0.199 
2.677 -0.183 -0.195 
2.691 -0.18 -0.192 
2.763 -0.18 -0.193 
2.624 -0.167 -0.18 
2.651 -0.165 -0.178 
2.628 -0.16 -0.173 
2.716 -0.161 -0.174 
2.626 -0.151 -0.165 
2.629 -0.147 -0.161 
2.753 -0.15 -0.165 
2.782 -0.148 -0.163 
2.763 -0.142 -0.157 
3.28 -0.164 -0.182 
3.325 -0.161 -0.18 
3.449 -0.162 -0.181 
3.464 -0.158 -0.177 
3.469 -0.153 -0.172 
3.47 -0.148 -0.167 
3.468 -0.143 -0.162 
3.468 -0.137 -0.157 
3.469 -0.132 -0.151 
3.463 -0.127 -0.146 
3.459 -0.122 -0.14 
3.459 -0.117 -0.135 
3.452 -0.111 -0.13 
3.447 -0.106 -0.124 
3.453 -0.101 -0.119 
3.453 -0.096 -0.113 
3.448 -0.091 -0.108 
3.443 -0.086 -0.102 
3.427 -0.081 -0.097 
3.375 -0.075 -0.09 
0 0 0 
6.346 -0.123 -0.149 
6.372 -0.114 -0.14 
6.395 -0.106 -0.13 
6.431 -0.097 -0.12 
6.435 -0.088 -0.11 
6.449 -0.079 -0.1 
6.458 -0.07 -0.09 
6.443 -0.061 -0.079 
6.47 -0.053 -0.069 
6.485 -0.044 -0.059 
6.481 -0.035 -0.048 
6.502 -0.026 -0.038 
6.507 -0.017 -0.027 
6.515 -0.008 -0.016 
6.523 0 -0.006 
6.534 0.008 0.004 
6.563 0.017 0.015 
6.556 0.026 0.026 
6.582 0.035 0.037 
6.669 0.044 0.049 
6.833 0.054 0.061 
6.882 0.064 0.073 
6.899 0.073 0.085 
6.901 0.082 0.097 
6.895 0.091 0.108 
6.912 0.1 0.12 
6.901 0.109 0.131 
6.913 0.118 0.144 
6.917 0.126 0.155 
6.913 0.135 0.167 
6.902 0.144 0.178 
6.858 0.151 0.189 
6.845 0.16 0.2 
6.92 0.17 0.214 
10.339 0.267 0.339 
10.349 0.28 0.356 
10.326 0.292 0.373 
10.3 0.303 0.39 
10.298 0.316 0.407 
10.283 0.327 0.424 
10.268 0.339 0.441 
10.249 0.35 0.458 
10.241 0.362 0.475 
10.248 0.374 0.493 
10.353 0.39 0.516 
10.298 0.4 0.531 
10.623 0.425 0.567 
11.305 0.465 0.623 
13.64 0.577 0.775 
11.288 0.49 0.661 
11.31 0.504 0.682 
0 0 0 
11.478 0.537 0.732 
11.507 0.551 0.754 
11.502 0.563 0.774 
11.508 0.576 0.794 
11.572 0.592 0.819 
11.664 0.609 0.846 
11.894 0.634 0.884 
11.985 0.651 0.911 
11.925 0.66 0.927 
12.745 0.719 1.013 
0 0 0 
13.392 0.783 1.111 
13.444 0.799 1.139 
13.43 0.812 1.162 
13.411 0.825 1.184 
13.384 0.836 1.205 
13.374 0.849 1.227 
13.387 0.863 1.252 
13.336 0.873 1.27 
13.298 0.883 1.29 
13.261 0.893 1.31 
13.249 0.905 1.331 
13.25 0.918 1.354 
13.219 0.928 1.374 
13.19 0.938 1.394 
13.183 0.95 1.416 
13.173 0.961 1.438 
13.139 0.97 1.458 
13.148 0.983 1.481 
13.129 0.993 1.502 
13.151 1.006 1.528 
13.14 1.016 1.549 
12.956 1.014 1.55 
12.866 1.018 1.561 
12.86 1.028 1.583 
12.872 1.04 1.606 
12.948 1.057 1.638 
13.095 1.08 1.68 
13.142 1.095 1.708 
13.08 1.1 1.723 
13.018 1.106 1.737 
13.046 1.118 1.763 
13.102 1.133 1.793 
13.126 1.145 1.818 
13.108 1.154 1.838 
13.098 1.163 1.859 
13.095 1.173 1.881 
13.095 1.183 1.903 
13.085 1.191 1.924 
13.064 1.199 1.942 
13.045 1.206 1.961 
13.052 1.216 1.984 
13.035 1.224 2.003 
13.028 1.232 2.023 
13.026 1.241 2.045 
13.025 1.25 2.067 
13.002 1.257 2.085 
12.989 1.264 2.104 
12.986 1.272 2.125 
12.978 1.28 2.145 
12.973 1.288 2.166 
12.952 1.294 2.183 
12.959 1.303 2.206 
12.943 1.309 2.224 
12.904 1.313 2.239 
12.889 1.319 2.257 
12.886 1.327 2.277 
12.881 1.334 2.297 
12.878 1.341 2.317 
12.867 1.347 2.335 
12.85 1.353 2.353 
12.854 1.36 2.374 
12.85 1.367 2.394 
12.848 1.374 2.413 
12.836 1.379 2.431 
12.828 1.385 2.45 
12.819 1.391 2.468 
12.81 1.396 2.486 
12.824 1.404 2.509 
12.83 1.411 2.53 
12.838 1.418 2.551 
12.825 1.423 2.568 
12.782 1.424 2.579 
12.709 1.422 2.583 
12.487 1.402 2.557 
12.346 1.392 2.547 
12.257 1.388 2.547 
12.111 1.376 2.534 
11.898 1.357 2.507 
11.664 1.335 2.475 
11.548 1.327 2.468 
11.432 1.318 2.459 
11.291 1.306 2.446 
11.141 1.293 2.429 
11.018 1.283 2.418 
10.909 1.274 2.41 
10.824 1.268 2.407 
10.669 1.254 2.387 
10.584 1.247 2.383 
10.293 1.216 2.332 
10.19 1.208 2.323 
10.138 1.205 2.325 
10.054 1.198 2.319 
9.994 1.194 2.319 
9.887 1.184 2.308 
9.798 1.176 2.3 
9.689 1.166 2.287 
9.592 1.157 2.277 
9.512 1.15 2.271 
9.439 1.143 2.266 
9.349 1.135 2.257 
9.231 1.123 2.24 
9.109 1.11 2.222 
8.99 1.098 2.205 
8.84 1.081 2.179 
8.664 1.061 2.147 
8.535 1.047 2.125 
8.492 1.044 2.125 
8.435 1.039 2.121 
8.401 1.036 2.123 
8.357 1.032 2.122 
8.339 1.031 2.128 
8.308 1.029 2.13 
8.282 1.027 2.133 
8.259 1.025 2.137 
8.232 1.023 2.139 
8.178 1.018 2.135 
8.1 1.008 2.124 
8.043 1.003 2.118 
7.984 0.996 2.111 
7.937 0.991 2.108 
7.875 0.984 2.1 
7.832 0.98 2.097 
7.789 0.975 2.094 
7.734 0.969 2.087 
7.696 0.964 2.085 
7.64 0.958 2.078 
7.598 0.953 2.075 
7.539 0.946 2.066 
7.499 0.941 2.063 
7.458 0.937 2.059 
7.411 0.931 2.054 
7.393 0.929 2.056 
7.339 0.922 2.048 
7.286 0.916 2.04 
7.256 0.912 2.039 
7.207 0.906 2.032 
7.181 0.902 2.03 
7.145 0.897 2.027 
7.111 0.893 2.023 
7.072 0.888 2.02 
7.047 0.884 2.019 
7.013 0.88 2.015 
6.983 0.876 2.012 
6.941 0.87 2.006 
6.921 0.867 2.006 
6.9 0.864 2.006 
6.862 0.858 2 
6.832 0.854 1.997 
6.813 0.851 1.997 
6.792 0.848 1.996 
6.755 0.843 1.99 
6.727 0.838 1.987 
6.71 0.835 1.987 
6.686 0.832 1.984 
6.668 0.828 1.984 
6.635 0.824 1.979 
6.606 0.819 1.975 
6.594 0.816 1.975 
6.562 0.811 1.97 
6.554 0.81 1.972 
6.513 0.803 1.964 
6.504 0.801 1.965 
6.484 0.797 1.963 
6.467 0.794 1.962 
6.452 0.791 1.961 
6.417 0.785 1.954 
6.415 0.784 1.957 
6.387 0.779 1.952 
6.363 0.775 1.948 
6.355 0.772 1.949 
6.335 0.768 1.946 
6.337 0.767 1.95 
6.324 0.764 1.949 
6.303 0.76 1.946 
6.281 0.756 1.942 
6.274 0.753 1.942 
6.26 0.75 1.941 
6.246 0.747 1.939 
6.236 0.744 1.938 
6.219 0.74 1.936 
6.206 0.737 1.934 
6.198 0.734 1.934 
6.196 0.732 1.935 
6.19 0.729 1.935 
6.17 0.725 1.931 
6.163 0.722 1.931 
6.146 0.718 1.927 
6.155 0.717 1.932 
6.138 0.713 1.928 
6.134 0.711 1.929 
6.127 0.708 1.928 
6.124 0.706 1.928 
6.12 0.703 1.928 
6.096 0.698 1.922 
6.095 0.696 1.923 
6.084 0.692 1.92 
6.089 0.69 1.923 
6.077 0.687 1.92 
6.075 0.684 1.92 
6.07 0.681 1.919 
6.074 0.679 1.921 
6.066 0.676 1.919 
6.064 0.673 1.919 
6.056 0.67 1.917 
6.049 0.667 1.915 
6.064 0.666 1.92 
6.047 0.661 1.915 
6.058 0.66 1.918 
6.048 0.656 1.915 
6.052 0.654 1.916 
6.063 0.653 1.92 
6.053 0.649 1.916 
6.038 0.645 1.911 
6.07 0.645 1.921 
6.059 0.641 1.917 
6.057 0.638 1.916 
6.06 0.636 1.916 
6.066 0.634 1.917 
6.07 0.631 1.918 
6.083 0.63 1.921 
6.082 0.627 1.919 
6.089 0.625 1.921 
6.087 0.621 1.919 
6.088 0.618 1.918 
6.102 0.617 1.921 
6.101 0.614 1.919 
6.124 0.613 1.925 
6.122 0.61 1.922 
6.125 0.607 1.922 
6.123 0.603 1.919 
6.135 0.602 1.921 
6.151 0.6 1.924 
6.168 0.598 1.927 
6.161 0.594 1.923 
6.195 0.594 1.932 
6.19 0.59 1.928 
6.211 0.589 1.932 
6.224 0.587 1.933 
6.23 0.584 1.933 
6.239 0.581 1.933 
6.261 0.58 1.937 
6.275 0.578 1.939 
6.278 0.574 1.937 
6.291 0.572 1.937 
6.304 0.57 1.938 
6.318 0.567 1.939 
6.337 0.565 1.942 
6.357 0.563 1.945 
6.377 0.561 1.947 
6.39 0.559 1.948 
6.404 0.556 1.948 
6.421 0.554 1.95 
6.438 0.552 1.951 
6.451 0.549 1.951 
6.466 0.546 1.951 
6.488 0.544 1.954 
6.511 0.542 1.956 
6.531 0.54 1.958 
6.553 0.538 1.96 
6.571 0.536 1.961 
6.59 0.533 1.962 
