ply
format ascii 1.0
element vertex 2403
property float x
property float y
property float z
end_header
9.393 -2.242 1.572 
9.383 -2.25 1.574 
9.364 -2.257 1.575 
9.348 -2.264 1.576 
9.344 -2.273 1.579 
9.333 -2.282 1.58 
9.323 -2.29 1.582 
9.305 -2.296 1.583 
9.291 -2.303 1.584 
9.29 -2.313 1.587 
9.274 -2.319 1.587 
9.271 -2.329 1.59 
9.252 -2.334 1.589 
9.242 -2.341 1.59 
9.232 -2.349 1.592 
9.217 -2.355 1.592 
9.202 -2.361 1.592 
9.198 -2.369 1.594 
9.191 -2.377 1.595 
9.169 -2.381 1.593 
9.17 -2.391 1.596 
9.162 -2.397 1.597 
9.158 -2.405 1.598 
9.156 -2.414 1.6 
9.136 -2.418 1.598 
9.131 -2.425 1.599 
9.116 -2.43 1.598 
9.107 -2.436 1.599 
9.106 -2.445 1.6 
9.096 -2.45 1.6 
9.071 -2.452 1.597 
9.071 -2.46 1.598 
9.068 -2.467 1.599 
9.054 -2.472 1.598 
9.05 -2.478 1.598 
9.055 -2.488 1.6 
9.034 -2.49 1.598 
9.039 -2.499 1.599 
9.026 -2.502 1.598 
8.996 -2.502 1.593 
9.004 -2.511 1.595 
9.003 -2.518 1.596 
8.983 -2.519 1.593 
8.988 -2.528 1.594 
8.974 -2.531 1.592 
8.963 -2.535 1.59 
8.958 -2.54 1.59 
8.961 -2.547 1.59 
8.943 -2.549 1.587 
8.934 -2.552 1.585 
8.936 -2.559 1.585 
8.929 -2.563 1.584 
8.914 -2.565 1.581 
8.919 -2.573 1.582 
8.909 -2.576 1.579 
8.908 -2.581 1.579 
8.895 -2.583 1.576 
8.889 -2.586 1.574 
8.879 -2.589 1.572 
8.88 -2.595 1.571 
8.875 -2.599 1.569 
8.867 -2.601 1.567 
8.851 -2.602 1.563 
8.854 -2.608 1.563 
8.857 -2.613 1.562 
8.858 -2.618 1.561 
8.835 -2.616 1.556 
8.833 -2.62 1.554 
8.839 -2.626 1.554 
8.832 -2.628 1.551 
8.825 -2.63 1.548 
8.82 -2.633 1.545 
8.822 -2.637 1.544 
8.812 -2.638 1.541 
8.813 -2.642 1.539 
8.81 -2.645 1.537 
8.815 -2.65 1.535 
8.801 -2.649 1.531 
8.803 -2.653 1.529 
8.803 -2.656 1.527 
8.787 -2.654 1.522 
8.781 -2.655 1.518 
8.784 -2.659 1.516 
8.793 -2.664 1.516 
8.778 -2.662 1.51 
8.785 -2.667 1.509 
8.782 -2.668 1.506 
8.775 -2.669 1.502 
8.78 -2.672 1.5 
8.773 -2.672 1.496 
8.769 -2.673 1.492 
8.759 -2.672 1.487 
8.779 -2.679 1.488 
8.771 -2.679 1.483 
8.755 -2.675 1.477 
8.755 -2.677 1.474 
8.758 -2.679 1.471 
8.762 -2.681 1.469 
8.752 -2.679 1.463 
8.758 -2.682 1.461 
8.758 -2.683 1.457 
8.747 -2.68 1.452 
8.753 -2.682 1.449 
8.751 -2.682 1.445 
8.753 -2.683 1.442 
8.761 -2.686 1.439 
8.755 -2.684 1.434 
8.746 -2.681 1.428 
8.763 -2.687 1.427 
8.752 -2.683 1.421 
8.756 -2.684 1.417 
8.763 -2.686 1.414 
8.749 -2.681 1.408 
8.77 -2.687 1.407 
8.756 -2.682 1.4 
8.75 -2.679 1.395 
8.768 -2.683 1.393 
8.764 -2.681 1.387 
8.769 -2.681 1.384 
8.757 -2.677 1.377 
8.777 -2.681 1.376 
8.774 -2.678 1.37 
8.772 -2.676 1.365 
8.774 -2.675 1.36 
8.771 -2.672 1.355 
8.772 -2.671 1.35 
8.769 -2.668 1.344 
8.772 -2.666 1.34 
8.769 -2.663 1.334 
8.791 -2.667 1.332 
8.795 -2.666 1.327 
8.797 -2.664 1.322 
8.801 -2.662 1.317 
8.796 -2.657 1.311 
8.801 -2.656 1.306 
8.815 -2.657 1.303 
8.808 -2.652 1.296 
8.809 -2.648 1.29 
8.809 -2.645 1.284 
8.815 -2.643 1.279 
8.831 -2.644 1.276 
8.839 -2.643 1.271 
8.836 -2.638 1.265 
8.836 -2.634 1.259 
8.84 -2.631 1.254 
8.842 -2.627 1.248 
8.851 -2.625 1.243 
8.858 -2.623 1.238 
8.851 -2.616 1.23 
8.864 -2.615 1.226 
8.863 -2.61 1.219 
8.865 -2.606 1.213 
8.88 -2.605 1.209 
8.872 -2.598 1.201 
8.885 -2.596 1.197 
8.886 -2.591 1.19 
8.875 -2.582 1.182 
8.877 -2.577 1.176 
8.878 -2.571 1.169 
8.901 -2.572 1.165 
8.923 -2.573 1.162 
8.896 -2.559 1.151 
8.9 -2.554 1.145 
8.912 -2.551 1.14 
8.925 -2.548 1.134 
8.933 -2.544 1.128 
8.955 -2.543 1.124 
8.954 -2.536 1.117 
8.959 -2.531 1.11 
8.959 -2.524 1.103 
8.945 -2.513 1.094 
8.918 -2.498 1.084 
9.078 -2.535 1.096 
9.074 -2.526 1.088 
9.078 -2.52 1.081 
9.038 -2.501 1.069 
9.065 -2.501 1.065 
9.108 -2.504 1.062 
9.095 -2.493 1.053 
9.116 -2.49 1.048 
9.122 -2.484 1.041 
9.139 -2.48 1.035 
9.142 -2.472 1.028 
9.045 -2.437 1.01 
9.029 -2.424 1 
9.199 -2.461 1.011 
9.173 -2.445 1.001 
9.167 -2.434 0.992 
9.16 -2.423 0.984 
9.196 -2.423 0.98 
9.187 -2.411 0.971 
9.21 -2.408 0.965 
9.217 -2.4 0.958 
9.231 -2.393 0.951 
9.17 -2.368 0.937 
9.216 -2.37 0.934 
9.165 -2.346 0.921 
9.347 -2.382 0.931 
9.308 -2.362 0.919 
9.327 -2.356 0.913 
9.324 -2.345 0.904 
9.322 -2.333 0.896 
9.324 -2.323 0.888 
9.346 -2.317 0.881 
9.356 -2.309 0.874 
9.384 -2.304 0.869 
9.41 -2.3 0.863 
9.421 -2.291 0.855 
9.41 -2.277 0.846 
9.457 -2.276 0.842 
9.442 -2.261 0.832 
9.48 -2.258 0.827 
9.496 -2.25 0.82 
9.51 -2.241 0.813 
9.51 -2.228 0.804 
9.564 -2.228 0.8 
9.553 -2.214 0.791 
9.569 -2.204 0.784 
9.585 -2.195 0.776 
9.612 -2.189 0.77 
9.561 -2.164 0.758 
9.525 -2.143 0.746 
9.548 -2.135 0.74 
9.58 -2.129 0.734 
9.615 -2.124 0.728 
9.65 -2.118 0.722 
9.683 -2.112 0.716 
9.626 -2.086 0.703 
9.664 -2.08 0.697 
7.042 -4.158 0.29 
7.028 -4.157 0.273 
7.026 -4.164 0.257 
7.022 -4.169 0.242 
7.021 -4.176 0.226 
7.016 -4.18 0.209 
7.007 -4.183 0.193 
7 -4.187 0.177 
6.995 -4.191 0.162 
6.981 -4.191 0.145 
6.988 -4.204 0.13 
6.98 -4.206 0.114 
6.97 -4.209 0.098 
6.967 -4.215 0.082 
6.961 -4.219 0.067 
6.945 -4.217 0.051 
6.951 -4.23 0.036 
6.952 -4.239 0.021 
6.929 -4.233 0.005 
6.901 -4.225 -0.009 
6.853 -4.205 -0.025 
6.857 -4.215 -0.04 
6.851 -4.22 -0.056 
6.846 -4.225 -0.071 
6.842 -4.231 -0.086 
6.83 -4.232 -0.102 
6.819 -4.234 -0.117 
6.742 -4.196 -0.131 
-0.03 -0.088 0 
6.052 -3.792 -0.145 
5.645 -3.551 -0.147 
5.628 -3.549 -0.159 
5.622 -3.553 -0.172 
5.609 -3.551 -0.184 
5.608 -3.558 -0.196 
5.607 -3.565 -0.209 
5.605 -3.57 -0.221 
5.595 -3.572 -0.233 
5.616 -3.592 -0.246 
5.607 -3.594 -0.259 
5.578 -3.583 -0.269 
5.557 -3.578 -0.281 
5.553 -3.583 -0.293 
5.502 -3.558 -0.302 
5.481 -3.552 -0.314 
5.424 -3.524 -0.322 
5.424 -3.531 -0.334 
5.439 -3.548 -0.347 
5.456 -3.567 -0.36 
5.457 -3.574 -0.371 
5.314 -3.492 -0.374 
5.309 -3.496 -0.385 
5.35 -3.53 -0.4 
5.371 -3.551 -0.413 
5.501 -3.642 -0.435 
5.471 -3.63 -0.444 
5.461 -3.632 -0.455 
5.473 -3.647 -0.468 
5.455 -3.644 -0.479 
5.447 -3.646 -0.489 
5.474 -3.672 -0.504 
5.495 -3.693 -0.518 
5.5 -3.706 -0.53 
5.531 -3.733 -0.544 
5.548 -3.752 -0.558 
5.489 -3.722 -0.564 
5.384 -3.66 -0.564 
5.172 -3.528 -0.553 
5.391 -3.682 -0.588 
5.486 -3.753 -0.609 
5.547 -3.801 -0.628 
5.557 -3.816 -0.641 
5.537 -3.812 -0.65 
5.509 -3.802 -0.659 
5.491 -3.798 -0.668 
3.914 -2.744 -0.485 
3.85 -2.707 -0.485 
3.887 -2.737 -0.498 
3.849 -2.718 -0.501 
3.878 -2.743 -0.513 
3.914 -2.775 -0.526 
3.927 -2.789 -0.535 
3.932 -2.799 -0.544 
3.932 -2.806 -0.552 
3.923 -2.805 -0.559 
3.935 -2.819 -0.567 
3.946 -2.833 -0.577 
3.955 -2.845 -0.586 
3.952 -2.85 -0.594 
3.936 -2.845 -0.599 
3.928 -2.846 -0.606 
3.946 -2.865 -0.617 
3.933 -2.863 -0.622 
3.937 -2.872 -0.631 
3.818 -2.794 -0.619 
3.859 -2.829 -0.634 
3.82 -2.808 -0.635 
3.805 -2.804 -0.64 
3.798 -2.804 -0.646 
3.021 -2.258 -0.52 
3.017 -2.26 -0.525 
3.027 -2.273 -0.533 
3.018 -2.271 -0.537 
3.021 -2.279 -0.543 
3.022 -2.284 -0.549 
3.009 -2.28 -0.553 
3.004 -2.282 -0.558 
2.996 -2.28 -0.561 
2.992 -2.283 -0.566 
2.993 -2.288 -0.572 
2.899 -2.225 -0.559 
2.9 -2.23 -0.564 
2.9 -2.235 -0.57 
2.886 -2.229 -0.572 
2.892 -2.239 -0.579 
2.885 -2.24 -0.582 
2.877 -2.238 -0.586 
2.882 -2.247 -0.592 
2.892 -2.259 -0.599 
2.89 -2.263 -0.604 
2.89 -2.268 -0.609 
2.876 -2.262 -0.611 
2.881 -2.27 -0.617 
2.887 -2.28 -0.623 
2.854 -2.26 -0.621 
2.871 -2.279 -0.63 
2.863 -2.276 -0.632 
2.878 -2.293 -0.641 
2.874 -2.295 -0.645 
2.852 -2.284 -0.645 
2.88 -2.309 -0.655 
2.875 -2.311 -0.659 
2.848 -2.296 -0.658 
2.848 -2.3 -0.662 
2.843 -2.301 -0.665 
2.853 -2.314 -0.672 
2.846 -2.314 -0.675 
2.831 -2.307 -0.676 
2.885 -2.353 -0.693 
2.865 -2.343 -0.693 
2.871 -2.353 -0.699 
2.859 -2.348 -0.7 
2.866 -2.359 -0.706 
2.871 -2.368 -0.712 
2.902 -2.397 -0.723 
2.852 -2.364 -0.716 
2.825 -2.346 -0.713 
2.823 -2.351 -0.717 
2.83 -2.361 -0.722 
2.836 -2.371 -0.728 
2.877 -2.408 -0.742 
2.883 -2.418 -0.747 
2.867 -2.411 -0.747 
2.867 -2.415 -0.751 
2.921 -2.463 -0.769 
2.884 -2.438 -0.763 
2.816 -2.389 -0.75 
2.83 -2.405 -0.757 
2.949 -2.507 -0.792 
2.802 -2.393 -0.757 
2.805 -2.399 -0.761 
2.806 -2.406 -0.765 
2.788 -2.396 -0.764 
2.796 -2.407 -0.77 
2.801 -2.416 -0.774 
2.89 -2.494 -0.802 
2.847 -2.463 -0.793 
2.868 -2.486 -0.802 
-0.03 -0.088 0 
4.988 -4.257 -1.401 
5.028 -4.298 -1.418 
5.022 -4.302 -1.422 
5 -4.293 -1.422 
4.978 -4.283 -1.421 
4.97 -4.285 -1.424 
4.961 -4.286 -1.426 
4.938 -4.275 -1.425 
4.922 -4.269 -1.425 
4.886 -4.246 -1.419 
4.882 -4.251 -1.423 
4.833 -4.219 -1.414 
4.84 -4.233 -1.42 
4.832 -4.233 -1.422 
4.837 -4.245 -1.428 
4.833 -4.25 -1.432 
4.822 -4.248 -1.432 
4.814 -4.251 -1.435 
4.807 -4.252 -1.436 
4.778 -4.235 -1.433 
4.771 -4.236 -1.434 
4.756 -4.231 -1.434 
4.77 -4.251 -1.442 
4.749 -4.24 -1.439 
4.748 -4.246 -1.442 
4.758 -4.262 -1.449 
4.73 -4.247 -1.444 
4.716 -4.241 -1.443 
4.699 -4.235 -1.441 
4.699 -4.241 -1.445 
4.701 -4.251 -1.449 
4.685 -4.244 -1.446 
4.692 -4.257 -1.452 
4.672 -4.246 -1.448 
4.667 -4.25 -1.45 
4.668 -4.257 -1.452 
4.676 -4.271 -1.458 
4.66 -4.264 -1.455 
4.656 -4.268 -1.456 
4.661 -4.279 -1.46 
4.641 -4.268 -1.456 
4.669 -4.299 -1.468 
4.641 -4.281 -1.461 
4.654 -4.299 -1.467 
4.639 -4.292 -1.464 
4.628 -4.289 -1.463 
4.619 -4.287 -1.461 
4.611 -4.287 -1.461 
4.602 -4.285 -1.459 
4.605 -4.294 -1.462 
4.602 -4.298 -1.463 
4.584 -4.288 -1.458 
4.558 -4.27 -1.451 
4.546 -4.265 -1.448 
4.525 -4.252 -1.443 
4.53 -4.263 -1.446 
4.521 -4.26 -1.444 
4.521 -4.265 -1.444 
4.522 -4.272 -1.445 
4.521 -4.277 -1.446 
4.513 -4.275 -1.444 
4.512 -4.279 -1.444 
4.52 -4.293 -1.448 
4.526 -4.303 -1.45 
4.512 -4.296 -1.446 
4.507 -4.297 -1.445 
-0.03 -0.088 0 
3.076 -2.976 -0.989 
-0.03 -0.088 0 
-0.03 -0.088 0 
-0.03 -0.088 0 
-0.03 -0.088 0 
-0.03 -0.088 0 
-0.03 -0.088 0 
-0.03 -0.088 0 
1.817 -1.821 -0.586 
1.819 -1.825 -0.587 
1.815 -1.822 -0.585 
1.821 -1.83 -0.587 
1.815 -1.827 -0.584 
1.815 -1.828 -0.584 
1.814 -1.828 -0.583 
1.81 -1.826 -0.582 
1.813 -1.83 -0.582 
1.813 -1.833 -0.582 
1.811 -1.833 -0.581 
1.806 -1.828 -0.578 
1.808 -1.832 -0.578 
1.807 -1.832 -0.577 
1.803 -1.83 -0.575 
1.803 -1.833 -0.575 
1.803 -1.833 -0.574 
1.8 -1.832 -0.572 
1.799 -1.832 -0.571 
1.798 -1.832 -0.57 
1.795 -1.832 -0.568 
1.795 -1.833 -0.567 
1.795 -1.834 -0.566 
1.795 -1.835 -0.565 
1.794 -1.836 -0.564 
1.79 -1.832 -0.562 
1.789 -1.833 -0.56 
1.79 -1.833 -0.559 
1.787 -1.832 -0.557 
1.789 -1.835 -0.557 
1.788 -1.836 -0.556 
1.787 -1.835 -0.554 
1.789 -1.837 -0.553 
1.786 -1.836 -0.551 
1.784 -1.835 -0.549 
1.785 -1.836 -0.548 
1.785 -1.836 -0.547 
1.786 -1.838 -0.546 
1.784 -1.837 -0.544 
1.785 -1.838 -0.543 
1.785 -1.838 -0.541 
1.784 -1.838 -0.54 
1.783 -1.837 -0.538 
1.783 -1.838 -0.536 
1.783 -1.838 -0.535 
1.785 -1.84 -0.534 
1.783 -1.839 -0.532 
1.785 -1.841 -0.53 
1.784 -1.84 -0.528 
1.784 -1.84 -0.527 
1.784 -1.84 -0.525 
1.783 -1.839 -0.523 
1.783 -1.839 -0.521 
1.784 -1.841 -0.52 
1.786 -1.843 -0.519 
1.784 -1.84 -0.516 
1.785 -1.842 -0.515 
1.785 -1.842 -0.513 
1.785 -1.842 -0.51 
1.785 -1.842 -0.509 
1.786 -1.841 -0.507 
1.784 -1.84 -0.505 
1.786 -1.841 -0.503 
1.785 -1.841 -0.501 
1.785 -1.839 -0.499 
1.786 -1.84 -0.497 
1.785 -1.838 -0.494 
1.785 -1.838 -0.492 
1.786 -1.839 -0.491 
1.787 -1.838 -0.489 
1.788 -1.838 -0.487 
1.79 -1.84 -0.485 
1.788 -1.836 -0.482 
1.788 -1.836 -0.48 
1.788 -1.835 -0.478 
1.789 -1.836 -0.476 
1.789 -1.834 -0.473 
1.791 -1.836 -0.472 
1.793 -1.837 -0.47 
1.794 -1.836 -0.467 
1.792 -1.834 -0.465 
1.796 -1.836 -0.463 
1.797 -1.836 -0.461 
1.798 -1.835 -0.459 
1.797 -1.833 -0.456 
1.793 -1.827 -0.452 
1.801 -1.834 -0.452 
1.798 -1.83 -0.449 
1.802 -1.833 -0.447 
1.802 -1.831 -0.445 
1.804 -1.833 -0.443 
1.802 -1.828 -0.44 
-0.03 -0.088 0 
-0.03 -0.088 0 
-0.03 -0.088 0 
-0.03 -0.088 0 
-0.03 -0.088 0 
-0.03 -0.088 0 
2.921 -2.873 -0.679 
2.902 -2.851 -0.67 
2.977 -2.919 -0.682 
2.989 -2.927 -0.681 
3.015 -2.948 -0.682 
3.058 -2.985 -0.687 
3.023 -2.949 -0.675 
3.109 -3.027 -0.689 
-0.03 -0.088 0 
-0.03 -0.088 0 
3.058 -2.968 -0.664 
-0.03 -0.088 0 
3.065 -2.966 -0.656 
3.101 -2.997 -0.659 
3.088 -2.98 -0.651 
3.093 -2.981 -0.647 
3.096 -2.98 -0.643 
3.101 -2.979 -0.639 
5.471 -5.162 -1.114 
5.476 -5.159 -1.107 
5.487 -5.161 -1.1 
5.495 -5.161 -1.093 
5.504 -5.161 -1.086 
5.503 -5.151 -1.076 
5.516 -5.155 -1.07 
5.511 -5.143 -1.06 
5.521 -5.143 -1.053 
5.526 -5.14 -1.045 
5.538 -5.141 -1.038 
5.536 -5.132 -1.029 
5.548 -5.133 -1.021 
5.555 -5.131 -1.014 
5.561 -5.126 -1.006 
5.562 -5.119 -0.997 
5.571 -5.117 -0.989 
5.572 -5.11 -0.98 
5.572 -5.1 -0.971 
5.58 -5.097 -0.963 
5.598 -5.104 -0.957 
5.598 -5.094 -0.948 
5.602 -5.087 -0.939 
5.604 -5.079 -0.93 
5.597 -5.063 -0.919 
5.52 -4.985 -0.898 
5.604 -5.048 -0.901 
5.637 -5.067 -0.897 
5.644 -5.063 -0.889 
5.638 -5.047 -0.879 
5.548 -4.957 -0.856 
5.633 -5.022 -0.859 
5.664 -5.037 -0.854 
5.674 -5.035 -0.846 
5.681 -5.031 -0.838 
5.693 -5.029 -0.83 
5.708 -5.031 -0.823 
5.706 -5.018 -0.813 
5.707 -5.007 -0.803 
5.718 -5.004 -0.795 
5.725 -4.999 -0.787 
5.732 -4.994 -0.778 
5.742 -4.991 -0.77 
5.751 -4.986 -0.762 
5.755 -4.978 -0.753 
5.764 -4.973 -0.744 
5.768 -4.964 -0.735 
5.772 -4.956 -0.726 
5.789 -4.956 -0.718 
5.793 -4.948 -0.709 
5.818 -4.955 -0.702 
5.806 -4.933 -0.691 
5.773 -4.892 -0.678 
5.755 -4.865 -0.667 
5.762 -4.858 -0.658 
5.776 -4.857 -0.65 
5.794 -4.86 -0.643 
5.811 -4.86 -0.635 
5.816 -4.85 -0.626 
5.819 -4.84 -0.617 
5.839 -4.844 -0.609 
5.847 -4.835 -0.601 
5.861 -4.834 -0.592 
5.872 -4.829 -0.584 
5.877 -4.819 -0.575 
5.899 -4.823 -0.568 
5.891 -4.803 -0.557 
5.913 -4.807 -0.55 
5.929 -4.806 -0.542 
5.934 -4.795 -0.533 
5.949 -4.793 -0.525 
5.963 -4.791 -0.516 
5.967 -4.779 -0.507 
5.977 -4.773 -0.498 
5.999 -4.775 -0.491 
6.022 -4.778 -0.482 
6.028 -4.769 -0.474 
6.05 -4.771 -0.465 
6.059 -4.763 -0.456 
6.071 -4.758 -0.448 
6.073 -4.744 -0.439 
6.073 -4.73 -0.43 
6.083 -4.722 -0.421 
6.092 -4.714 -0.412 
6.117 -4.718 -0.405 
6.125 -4.709 -0.396 
6.145 -4.707 -0.387 
6.159 -4.702 -0.379 
6.171 -4.697 -0.37 
6.186 -4.691 -0.362 
6.192 -4.681 -0.352 
6.201 -4.672 -0.344 
6.211 -4.663 -0.335 
6.315 -4.725 -0.331 
6.499 -4.842 -0.331 
6.545 -4.859 -0.324 
6.533 -4.833 -0.313 
6.513 -4.803 -0.302 
6.568 -4.826 -0.296 
6.554 -4.798 -0.285 
6.582 -4.801 -0.277 
6.651 -4.834 -0.27 
6.638 -4.808 -0.26 
6.659 -4.806 -0.25 
6.67 -4.796 -0.242 
6.677 -4.784 -0.233 
6.694 -4.779 -0.224 
6.707 -4.771 -0.215 
6.703 -4.751 -0.205 
6.719 -4.745 -0.196 
6.733 -4.737 -0.187 
6.741 -4.725 -0.178 
6.72 -4.693 -0.168 
6.695 -4.658 -0.158 
6.538 -4.535 -0.145 
6.418 -4.437 -0.133 
6.426 -4.426 -0.125 
6.448 -4.424 -0.117 
6.463 -4.416 -0.108 
6.525 -4.442 -0.101 
6.538 -4.433 -0.092 
6.589 -4.449 -0.084 
6.675 -4.489 -0.076 
6.688 -4.48 -0.067 
6.687 -4.462 -0.06 
6.718 -4.465 -0.05 
6.687 -4.428 -0.042 
6.705 -4.422 -0.033 
6.739 -4.426 -0.025 
6.741 -4.41 -0.016 
6.827 -4.446 -0.007 
6.838 -4.437 0 
6.833 -4.415 0.009 
6.853 -4.41 0.017 
7.034 -4.505 0.027 
7.051 -4.498 0.036 
7.04 -4.472 0.042 
7.025 -4.445 0.051 
6.978 -4.397 0.059 
6.807 -4.275 0.066 
6.814 -4.261 0.074 
6.804 -4.237 0.083 
6.812 -4.224 0.091 
6.841 -4.225 0.099 
6.859 -4.218 0.108 
6.925 -4.239 0.116 
6.955 -4.239 0.125 
6.945 -4.215 0.133 
6.973 -4.213 0.141 
6.98 -4.2 0.149 
6.996 -4.191 0.158 
7.008 -4.18 0.166 
7.022 -4.17 0.174 
7.045 -4.166 0.182 
7.046 -4.148 0.19 
7.051 -4.134 0.198 
7.063 -4.124 0.205 
7.09 -4.121 0.214 
7.097 -4.106 0.222 
7.115 -4.098 0.23 
7.137 -4.092 0.238 
7.137 -4.074 0.245 
7.159 -4.068 0.252 
7.17 -4.057 0.261 
7.19 -4.05 0.269 
7.194 -4.034 0.276 
7.213 -4.026 0.284 
7.23 -4.017 0.291 
7.237 -4.002 0.299 
7.261 -3.997 0.307 
7.269 -3.983 0.315 
7.287 -3.975 0.322 
7.299 -3.964 0.33 
7.319 -3.955 0.338 
7.342 -3.95 0.346 
7.333 -3.926 0.352 
7.369 -3.927 0.36 
7.368 -3.908 0.367 
7.39 -3.902 0.375 
7.399 -3.888 0.382 
7.424 -3.882 0.39 
7.438 -3.872 0.397 
7.441 -3.855 0.404 
7.433 -3.833 0.41 
7.419 -3.808 0.416 
7.4 -3.78 0.421 
7.369 -3.747 0.425 
7.359 -3.724 0.431 
7.353 -3.704 0.437 
7.375 -3.697 0.444 
7.39 -3.687 0.451 
7.407 -3.678 0.457 
7.423 -3.668 0.464 
7.446 -3.661 0.472 
7.453 -3.647 0.478 
7.459 -3.631 0.484 
7.475 -3.622 0.491 
7.49 -3.611 0.497 
7.52 -3.607 0.505 
7.523 -3.592 0.51 
7.526 -3.575 0.516 
7.535 -3.562 0.523 
7.574 -3.562 0.531 
7.584 -3.55 0.537 
7.607 -3.542 0.543 
7.62 -3.531 0.549 
7.633 -3.519 0.556 
7.641 -3.506 0.561 
7.661 -3.498 0.568 
7.673 -3.485 0.574 
7.693 -3.477 0.58 
7.699 -3.462 0.585 
7.74 -3.463 0.593 
7.736 -3.444 0.598 
7.753 -3.434 0.604 
7.759 -3.419 0.609 
7.788 -3.414 0.616 
7.8 -3.402 0.621 
7.804 -3.387 0.625 
7.824 -3.379 0.631 
7.829 -3.364 0.636 
7.864 -3.361 0.643 
7.875 -3.349 0.648 
7.887 -3.336 0.654 
7.899 -3.324 0.659 
7.914 -3.313 0.664 
7.939 -3.307 0.67 
7.949 -3.294 0.675 
7.959 -3.281 0.68 
7.985 -3.275 0.686 
7.985 -3.258 0.69 
8.003 -3.249 0.695 
8.199 -3.309 0.716 
8.563 -3.433 0.752 
8.574 -3.42 0.757 
8.551 -3.394 0.757 
8.531 -3.369 0.759 
8.518 -3.346 0.762 
8.492 -3.319 0.764 
8.477 -3.295 0.766 
8.462 -3.273 0.768 
8.436 -3.247 0.768 
8.441 -3.231 0.772 
8.417 -3.206 0.773 
8.402 -3.185 0.774 
8.374 -3.157 0.775 
8.36 -3.137 0.776 
8.352 -3.117 0.778 
8.34 -3.096 0.78 
8.321 -3.074 0.781 
8.305 -3.052 0.782 
8.296 -3.033 0.783 
8.293 -3.017 0.786 
8.312 -3.007 0.79 
8.333 -2.999 0.794 
8.356 -2.991 0.798 
8.366 -2.98 0.802 
8.368 -2.965 0.804 
8.383 -2.954 0.808 
8.396 -2.944 0.811 
8.427 -2.939 0.816 
8.451 -2.931 0.82 
8.465 -2.921 0.823 
8.46 -2.905 0.823 
8.492 -2.899 0.829 
8.494 -2.886 0.83 
8.511 -2.876 0.833 
8.523 -2.865 0.835 
8.537 -2.855 0.838 
8.554 -2.846 0.841 
8.565 -2.835 0.844 
8.581 -2.825 0.847 
8.601 -2.817 0.85 
8.608 -2.804 0.851 
8.625 -2.796 0.854 
8.627 -2.782 0.855 
8.638 -2.771 0.857 
8.671 -2.767 0.861 
8.677 -2.755 0.863 
8.69 -2.745 0.864 
8.719 -2.74 0.868 
8.726 -2.728 0.869 
8.734 -2.716 0.871 
8.749 -2.708 0.872 
8.778 -2.702 0.876 
8.774 -2.687 0.876 
8.794 -2.68 0.878 
8.808 -2.671 0.879 
8.817 -2.66 0.88 
8.829 -2.65 0.881 
8.84 -2.639 0.882 
8.846 -2.629 0.883 
8.869 -2.623 0.885 
8.87 -2.609 0.885 
8.907 -2.608 0.888 
8.914 -2.596 0.888 
8.89 -2.577 0.886 
8.902 -2.568 0.887 
8.934 -2.564 0.889 
8.944 -2.555 0.889 
8.943 -2.542 0.889 
8.962 -2.535 0.89 
8.981 -2.528 0.891 
8.996 -2.52 0.892 
9 -2.509 0.891 
9.032 -2.505 0.893 
9.029 -2.493 0.892 
9.037 -2.484 0.891 
9.051 -2.475 0.891 
9.042 -2.461 0.89 
9.181 -2.486 0.901 
9.186 -2.476 0.9 
9.165 -2.46 0.897 
9.172 -2.45 0.896 
9.189 -2.444 0.896 
9.219 -2.44 0.897 
9.221 -2.43 0.896 
9.218 -2.418 0.894 
9.222 -2.408 0.892 
9.232 -2.4 0.891 
9.26 -2.397 0.892 
9.28 -2.392 0.892 
9.278 -2.381 0.89 
9.28 -2.371 0.888 
9.308 -2.368 0.888 
9.328 -2.363 0.888 
9.34 -2.356 0.887 
9.346 -2.347 0.885 
9.359 -2.34 0.884 
9.382 -2.336 0.883 
9.393 -2.33 0.882 
9.38 -2.318 0.878 
9.415 -2.316 0.878 
9.442 -2.313 0.878 
9.421 -2.3 0.874 
9.422 -2.291 0.871 
9.447 -2.288 0.87 
9.454 -2.28 0.868 
9.473 -2.277 0.867 
9.441 -2.26 0.86 
9.485 -2.262 0.861 
9.492 -2.256 0.859 
9.488 -2.247 0.855 
9.484 -2.238 0.851 
9.494 -2.232 0.849 
9.5 -2.226 0.846 
9.556 -2.231 0.848 
9.535 -2.219 0.842 
9.545 -2.214 0.839 
9.556 -2.209 0.837 
9.569 -2.204 0.834 
9.591 -2.202 0.833 
9.585 -2.194 0.828 
9.596 -2.19 0.826 
9.602 -2.184 0.822 
9.613 -2.18 0.819 
9.638 -2.18 0.819 
9.636 -2.173 0.813 
9.654 -2.17 0.811 
9.686 -2.171 0.81 
9.704 -2.169 0.808 
9.611 -2.143 0.795 
9.534 -2.122 0.785 
9.598 -2.129 0.786 
9.592 -2.122 0.781 
9.579 -2.115 0.776 
9.588 -2.111 0.773 
9.647 -2.119 0.773 
9.72 -2.129 0.774 
9.728 -2.126 0.77 
9.716 -2.119 0.765 
9.727 -2.117 0.761 
9.722 -2.111 0.757 
9.718 -2.106 0.752 
9.701 -2.098 0.746 
9.736 -2.102 0.744 
9.725 -2.096 0.739 
9.73 -2.093 0.734 
9.736 -2.09 0.73 
9.71 -2.082 0.723 
9.798 -2.096 0.725 
9.794 -2.093 0.719 
9.734 -2.077 0.71 
9.673 -2.062 0.701 
9.696 -2.063 0.698 
9.698 -2.061 0.693 
9.701 -2.06 0.689 
9.708 -2.059 0.684 
9.716 -2.057 0.68 
9.743 -2.061 0.677 
9.72 -2.054 0.67 
9.734 -2.055 0.666 
9.741 -2.056 0.662 
9.746 -2.054 0.657 
9.74 -2.052 0.651 
9.755 -2.053 0.647 
9.74 -2.049 0.641 
9.743 -2.049 0.636 
9.756 -2.051 0.632 
9.744 -2.046 0.626 
9.74 -2.046 0.62 
9.755 -2.049 0.616 
9.744 -2.046 0.61 
9.753 -2.048 0.606 
9.749 -2.046 0.6 
9.753 -2.048 0.595 
9.749 -2.046 0.59 
9.743 -2.046 0.584 
9.738 -2.045 0.578 
9.751 -2.049 0.574 
9.74 -2.048 0.568 
9.753 -2.051 0.563 
9.745 -2.051 0.558 
9.729 -2.048 0.551 
9.737 -2.051 0.546 
9.735 -2.051 0.541 
9.739 -2.054 0.536 
9.74 -2.056 0.531 
9.741 -2.058 0.525 
9.739 -2.06 0.52 
9.723 -2.059 0.514 
9.733 -2.062 0.509 
9.723 -2.064 0.503 
9.726 -2.066 0.498 
9.718 -2.067 0.492 
9.709 -2.068 0.487 
9.711 -2.072 0.481 
9.709 -2.074 0.476 
9.707 -2.076 0.47 
9.693 -2.077 0.464 
9.68 -2.079 0.459 
9.671 -2.08 0.453 
9.623 -2.073 0.445 
9.541 -2.06 0.437 
9.459 -2.046 0.427 
9.43 -2.045 0.421 
9.393 -2.042 0.414 
9.355 -2.037 0.407 
9.295 -2.029 0.4 
9.205 -2.015 0.391 
9.128 -2.003 0.383 
9.102 -2.002 0.377 
9.09 -2.005 0.371 
9.085 -2.009 0.366 
9.112 -2.02 0.362 
9.1 -2.022 0.357 
9.102 -2.028 0.352 
9.097 -2.032 0.347 
9.095 -2.037 0.342 
9.103 -2.045 0.338 
9.106 -2.051 0.333 
9.103 -2.056 0.328 
9.082 -2.058 0.323 
9.087 -2.065 0.318 
9.09 -2.072 0.315 
9.093 -2.078 0.31 
9.095 -2.085 0.305 
9.157 -2.106 0.302 
9.276 -2.139 0.301 
9.33 -2.158 0.299 
9.404 -2.181 0.296 
9.456 -2.2 0.293 
9.478 -2.213 0.289 
9.486 -2.222 0.284 
9.473 -2.227 0.279 
9.466 -2.233 0.274 
9.465 -2.241 0.269 
9.454 -2.246 0.264 
9.445 -2.253 0.26 
9.436 -2.259 0.255 
9.431 -2.266 0.25 
9.415 -2.271 0.245 
9.408 -2.279 0.241 
9.407 -2.287 0.236 
9.399 -2.294 0.232 
9.395 -2.302 0.228 
9.368 -2.306 0.222 
9.359 -2.312 0.219 
9.348 -2.318 0.214 
9.346 -2.327 0.21 
9.335 -2.335 0.205 
9.316 -2.34 0.201 
9.307 -2.348 0.196 
9.303 -2.357 0.192 
9.28 -2.362 0.188 
9.275 -2.37 0.183 
9.267 -2.379 0.18 
9.248 -2.384 0.175 
9.249 -2.395 0.171 
9.228 -2.401 0.167 
9.232 -2.412 0.163 
9.209 -2.418 0.159 
9.183 -2.421 0.155 
9.179 -2.431 0.151 
9.179 -2.442 0.148 
9.159 -2.449 0.144 
9.157 -2.459 0.14 
9.138 -2.466 0.136 
9.14 -2.479 0.133 
9.114 -2.484 0.129 
9.101 -2.492 0.125 
9.1 -2.503 0.122 
9.071 -2.507 0.118 
9.076 -2.521 0.115 
9.044 -2.524 0.112 
9.045 -2.536 0.108 
9.037 -2.547 0.105 
9.009 -2.552 0.102 
9.01 -2.565 0.099 
8.986 -2.57 0.096 
8.969 -2.578 0.092 
8.954 -2.587 0.089 
8.952 -2.6 0.086 
8.93 -2.606 0.083 
8.92 -2.617 0.08 
8.901 -2.625 0.078 
8.883 -2.633 0.075 
8.875 -2.643 0.072 
8.867 -2.655 0.07 
8.846 -2.662 0.067 
8.837 -2.674 0.064 
8.814 -2.68 0.062 
8.808 -2.693 0.059 
8.783 -2.699 0.057 
8.769 -2.709 0.054 
8.754 -2.719 0.052 
8.767 -2.736 0.05 
8.738 -2.741 0.048 
8.727 -2.752 0.045 
8.711 -2.763 0.043 
8.689 -2.77 0.041 
8.68 -2.782 0.039 
8.656 -2.789 0.037 
8.647 -2.801 0.036 
8.646 -2.816 0.034 
8.627 -2.825 0.033 
8.618 -2.837 0.031 
8.607 -2.848 0.03 
8.585 -2.855 0.028 
8.563 -2.864 0.027 
8.545 -2.874 0.025 
8.531 -2.884 0.024 
8.533 -2.901 0.022 
8.489 -2.901 0.021 
8.476 -2.913 0.02 
8.465 -2.924 0.018 
8.454 -2.937 0.017 
8.431 -2.945 0.016 
8.432 -2.961 0.015 
8.415 -2.971 0.014 
8.392 -2.979 0.013 
8.386 -2.994 0.012 
8.39 -3.011 0.011 
8.412 -3.035 0.01 
8.427 -3.056 0.009 
8.435 -3.075 0.008 
8.451 -3.097 0.007 
8.482 -3.125 0.007 
8.499 -3.149 0.007 
8.499 -3.165 0.006 
8.505 -3.184 0.006 
8.538 -3.214 0.005 
8.546 -3.234 0.004 
8.562 -3.257 0.005 
8.599 -3.289 0.004 
8.536 -3.282 0.004 
8.391 -3.246 0.004 
8.371 -3.255 0.003 
8.368 -3.272 0.003 
8.379 -3.293 0.003 
8.177 -3.234 0.004 
8.083 -3.215 0.003 
8.071 -3.227 0.003 
8.061 -3.241 0.003 
8.048 -3.253 0.004 
8.033 -3.264 0.004 
8.014 -3.275 0.004 
8.009 -3.29 0.004 
7.978 -3.295 0.005 
7.952 -3.302 0.005 
7.951 -3.319 0.006 
7.925 -3.326 0.006 
7.911 -3.339 0.007 
7.894 -3.349 0.008 
7.873 -3.359 0.008 
7.872 -3.375 0.01 
7.84 -3.38 0.01 
5.792 -2.537 0.009 
5.826 -2.564 0.009 
-0.03 -0.088 0 
-0.03 -0.088 0 
-0.03 -0.088 0 
-0.03 -0.088 0 
-0.03 -0.088 0 
-0.03 -0.088 0 
-0.03 -0.088 0 
-0.03 -0.088 0 
-0.03 -0.088 0 
-0.03 -0.088 0 
-0.03 -0.088 0 
-0.03 -0.088 0 
-0.03 -0.088 0 
-0.03 -0.088 0 
-0.03 -0.088 0 
-0.03 -0.088 0 
6.055 -2.906 0.027 
7.41 -3.552 0.035 
7.518 -3.621 0.038 
7.499 -3.631 0.038 
7.49 -3.645 0.04 
7.464 -3.651 0.042 
7.45 -3.664 0.044 
7.424 -3.67 0.046 
7.419 -3.686 0.048 
7.394 -3.693 0.05 
7.41 -3.719 0.052 
7.423 -3.744 0.054 
7.427 -3.766 0.057 
7.434 -3.788 0.059 
7.441 -3.811 0.062 
7.483 -3.851 0.064 
7.474 -3.866 0.066 
7.454 -3.876 0.069 
7.441 -3.888 0.071 
7.422 -3.898 0.074 
7.391 -3.9 0.076 
7.395 -3.923 0.079 
7.373 -3.931 0.081 
7.358 -3.943 0.084 
7.346 -3.955 0.087 
7.336 -3.97 0.089 
7.312 -3.978 0.092 
7.298 -3.989 0.095 
7.273 -3.996 0.098 
7.26 -4.008 0.1 
7.256 -4.025 0.104 
7.226 -4.028 0.106 
7.211 -4.04 0.11 
7.2 -4.053 0.113 
7.177 -4.06 0.116 
7.171 -4.077 0.119 
7.164 -4.092 0.122 
7.145 -4.101 0.125 
7.127 -4.11 0.129 
7.12 -4.126 0.132 
7.098 -4.133 0.135 
7.084 -4.145 0.138 
7.058 -4.149 0.142 
7.037 -4.155 0.145 
7.04 -4.177 0.148 
7.022 -4.186 0.152 
7.002 -4.194 0.155 
6.989 -4.207 0.159 
6.985 -4.224 0.162 
6.951 -4.223 0.166 
6.931 -4.231 0.169 
6.888 -4.225 0.172 
6.856 -4.225 0.175 
6.822 -4.224 0.179 
6.817 -4.241 0.182 
6.803 -4.251 0.186 
6.793 -4.264 0.19 
6.927 -4.366 0.198 
6.943 -4.396 0.203 
6.904 -4.392 0.206 
6.889 -4.402 0.21 
6.879 -4.415 0.214 
6.94 -4.474 0.22 
6.951 -4.501 0.225 
6.951 -4.52 0.229 
6.946 -4.538 0.235 
6.93 -4.548 0.239 
6.894 -4.545 0.241 
6.851 -4.536 0.245 
6.823 -4.538 0.249 
6.792 -4.537 0.252 
6.755 -4.532 0.256 
6.643 -4.478 0.256 
6.622 -4.484 0.26 
6.526 -4.439 0.262 
6.517 -4.453 0.266 
6.496 -4.458 0.27 
6.426 -4.429 0.272 
6.416 -4.441 0.277 
6.407 -4.454 0.281 
6.389 -4.461 0.286 
6.555 -4.593 0.298 
6.666 -4.689 0.309 
6.662 -4.705 0.314 
6.659 -4.724 0.319 
6.642 -4.731 0.323 
6.63 -4.743 0.328 
6.611 -4.748 0.333 
6.607 -4.765 0.338 
6.571 -4.759 0.342 
6.581 -4.786 0.348 
6.559 -4.79 0.352 
6.547 -4.8 0.357 
6.545 -4.817 0.363 
6.521 -4.82 0.367 
6.515 -4.835 0.372 
6.5 -4.843 0.377 
6.49 -4.855 0.383 
6.476 -4.864 0.388 
6.448 -4.863 0.392 
6.424 -4.864 0.397 
6.226 -4.736 0.39 
6.163 -4.707 0.392 
6.152 -4.716 0.397 
6.146 -4.73 0.403 
6.129 -4.736 0.408 
6.117 -4.744 0.413 
6.085 -4.739 0.416 
6.069 -4.743 0.42 
6.057 -4.753 0.426 
6.044 -4.76 0.431 
6.026 -4.764 0.435 
6.019 -4.777 0.442 
6.016 -4.792 0.448 
5.997 -4.794 0.452 
5.975 -4.795 0.457 
5.967 -4.806 0.462 
5.953 -4.812 0.467 
5.948 -4.826 0.473 
5.943 -4.84 0.479 
5.938 -4.852 0.484 
5.928 -4.862 0.49 
5.933 -4.884 0.497 
5.945 -4.91 0.504 
5.951 -4.931 0.51 
5.93 -4.933 0.515 
5.936 -4.954 0.522 
5.901 -4.942 0.526 
5.905 -4.962 0.532 
5.902 -4.977 0.539 
5.908 -4.999 0.546 
5.9 -5.01 0.552 
5.884 -5.012 0.557 
5.861 -5.009 0.561 
5.806 -4.98 0.563 
5.76 -4.957 0.565 
5.759 -4.973 0.572 
5.755 -4.987 0.578 
5.734 -4.984 0.583 
5.709 -4.979 0.587 
5.68 -4.969 0.59 
5.667 -4.974 0.596 
5.643 -4.97 0.6 
5.622 -4.967 0.605 
5.605 -4.968 0.61 
5.607 -4.985 0.617 
5.605 -4.999 0.623 
5.585 -4.997 0.628 
5.579 -5.006 0.634 
5.575 -5.017 0.64 
5.576 -5.034 0.647 
5.56 -5.035 0.652 
5.559 -5.048 0.659 
5.531 -5.038 0.662 
5.538 -5.06 0.67 
5.529 -5.066 0.676 
5.523 -5.075 0.682 
5.516 -5.083 0.688 
5.496 -5.079 0.692 
5.497 -5.094 0.699 
5.485 -5.097 0.705 
5.487 -5.113 0.712 
5.474 -5.115 0.717 
5.469 -5.125 0.724 
5.477 -5.145 0.732 
5.464 -5.148 0.737 
5.453 -5.151 0.743 
5.46 -5.171 0.751 
5.445 -5.172 0.756 
5.442 -5.182 0.763 
5.44 -5.193 0.769 
5.421 -5.188 0.774 
5.41 -5.192 0.779 
5.415 -5.21 0.787 
5.399 -5.208 0.792 
5.407 -5.227 0.8 
5.396 -5.23 0.806 
5.38 -5.228 0.811 
5.377 -5.238 0.817 
5.351 -5.224 0.821 
5.354 -5.239 0.828 
5.336 -5.235 0.833 
5.307 -5.22 0.836 
5.318 -5.242 0.844 
5.311 -5.247 0.851 
5.304 -5.251 0.856 
5.298 -5.258 0.863 
5.294 -5.266 0.869 
5.285 -5.269 0.875 
5.295 -5.289 0.885 
5.298 -5.304 0.892 
5.289 -5.306 0.898 
5.28 -5.309 0.904 
5.285 -5.324 0.912 
5.282 -5.333 0.918 
5.289 -5.349 0.927 
5.288 -5.359 0.934 
5.297 -5.379 0.943 
5.299 -5.392 0.95 
5.302 -5.404 0.958 
5.348 -5.461 0.974 
5.422 -5.546 0.994 
5.513 -5.647 1.019 
5.534 -5.678 1.03 
5.544 -5.698 1.039 
5.53 -5.694 1.044 
5.525 -5.7 1.051 
5.517 -5.702 1.057 
5.503 -5.696 1.062 
5.506 -5.709 1.07 
5.501 -5.715 1.076 
5.492 -5.714 1.082 
5.496 -5.728 1.09 
5.497 -5.737 1.098 
5.481 -5.73 1.102 
5.477 -5.734 1.109 
5.471 -5.736 1.115 
5.464 -5.738 1.121 
5.469 -5.751 1.129 
5.458 -5.748 1.134 
5.446 -5.745 1.139 
5.449 -5.755 1.147 
5.438 -5.752 1.152 
5.438 -5.76 1.159 
5.443 -5.772 1.168 
5.428 -5.764 1.171 
5.429 -5.772 1.178 
5.423 -5.773 1.184 
5.417 -5.775 1.19 
5.406 -5.769 1.195 
5.403 -5.772 1.201 
5.401 -5.777 1.208 
5.402 -5.784 1.215 
5.401 -5.789 1.222 
5.396 -5.79 1.228 
5.397 -5.799 1.236 
5.387 -5.793 1.239 
5.388 -5.8 1.247 
5.369 -5.785 1.248 
5.372 -5.793 1.256 
5.373 -5.799 1.262 
5.375 -5.808 1.271 
5.356 -5.792 1.272 
5.368 -5.809 1.282 
5.365 -5.811 1.288 
5.359 -5.809 1.293 
5.348 -5.802 1.296 
5.352 -5.811 1.305 
5.347 -5.809 1.309 
5.348 -5.814 1.316 
5.337 -5.807 1.319 
5.34 -5.813 1.325 
5.33 -5.806 1.329 
5.338 -5.819 1.339 
5.346 -5.83 1.346 
5.329 -5.815 1.347 
5.325 -5.813 1.352 
5.322 -5.813 1.357 
5.33 -5.823 1.366 
5.329 -5.825 1.372 
5.324 -5.822 1.375 
5.321 -5.822 1.38 
5.312 -5.813 1.384 
5.329 -5.834 1.395 
5.329 -5.835 1.4 
5.315 -5.823 1.401 
5.329 -5.837 1.411 
5.315 -5.825 1.412 
5.318 -5.829 1.419 
5.316 -5.827 1.424 
5.324 -5.837 1.431 
5.306 -5.818 1.431 
5.313 -5.826 1.438 
5.321 -5.835 1.446 
5.321 -5.835 1.45 
5.313 -5.827 1.454 
5.318 -5.832 1.46 
5.305 -5.818 1.46 
5.309 -5.822 1.466 
5.311 -5.823 1.471 
5.316 -5.827 1.478 
5.316 -5.828 1.482 
5.321 -5.833 1.488 
5.317 -5.827 1.491 
5.326 -5.835 1.498 
5.321 -5.828 1.501 
5.325 -5.831 1.507 
5.324 -5.828 1.51 
5.324 -5.827 1.514 
5.321 -5.821 1.516 
5.333 -5.831 1.524 
5.319 -5.815 1.524 
5.332 -5.827 1.532 
5.332 -5.824 1.536 
5.326 -5.816 1.537 
5.33 -5.817 1.541 
5.328 -5.811 1.544 
5.325 -5.805 1.547 
5.326 -5.803 1.55 
5.323 -5.797 1.553 
5.31 -5.779 1.552 
5.296 -5.76 1.551 
5.297 -5.758 1.555 
5.289 -5.745 1.555 
5.276 -5.727 1.554 
5.259 -5.706 1.552 
5.242 -5.684 1.55 
5.238 -5.675 1.551 
5.226 -5.657 1.549 
5.223 -5.65 1.551 
5.199 -5.62 1.547 
5.195 -5.611 1.548 
5.19 -5.601 1.548 
5.173 -5.576 1.545 
5.162 -5.561 1.544 
5.16 -5.553 1.545 
5.158 -5.545 1.546 
5.145 -5.527 1.543 
5.145 -5.521 1.545 
5.128 -5.498 1.542 
5.131 -5.495 1.544 
5.126 -5.484 1.544 
5.123 -5.475 1.544 
5.125 -5.471 1.546 
5.123 -5.462 1.546 
5.115 -5.448 1.545 
5.114 -5.439 1.546 
5.116 -5.436 1.547 
5.117 -5.431 1.548 
5.117 -5.424 1.549 
5.107 -5.406 1.547 
5.118 -5.41 1.55 
5.112 -5.397 1.549 
5.113 -5.392 1.55 
5.114 -5.384 1.55 
5.12 -5.383 1.552 
5.12 -5.376 1.552 
5.113 -5.362 1.549 
5.113 -5.352 1.549 
5.12 -5.353 1.551 
5.124 -5.35 1.552 
5.129 -5.346 1.553 
5.128 -5.337 1.552 
5.134 -5.334 1.553 
5.138 -5.331 1.554 
5.135 -5.319 1.552 
5.15 -5.326 1.556 
5.146 -5.312 1.554 
5.157 -5.315 1.556 
5.168 -5.318 1.558 
5.164 -5.304 1.556 
5.16 -5.292 1.554 
5.17 -5.293 1.555 
5.182 -5.296 1.558 
5.203 -5.308 1.562 
5.205 -5.3 1.561 
5.223 -5.309 1.565 
5.223 -5.299 1.563 
5.231 -5.298 1.563 
5.24 -5.297 1.564 
5.249 -5.295 1.564 
5.253 -5.291 1.564 
5.266 -5.292 1.565 
5.285 -5.302 1.569 
5.292 -5.298 1.569 
5.303 -5.298 1.569 
5.309 -5.295 1.569 
5.329 -5.303 1.572 
5.348 -5.311 1.574 
5.363 -5.315 1.576 
5.369 -5.31 1.575 
5.376 -5.306 1.573 
5.395 -5.314 1.575 
5.413 -5.319 1.577 
5.435 -5.33 1.58 
5.452 -5.334 1.582 
5.464 -5.335 1.582 
5.481 -5.34 1.583 
5.496 -5.344 1.583 
5.524 -5.359 1.587 
5.541 -5.363 1.589 
5.574 -5.382 1.594 
5.593 -5.389 1.595 
5.614 -5.396 1.597 
5.641 -5.409 1.6 
5.66 -5.415 1.601 
5.686 -5.428 1.603 
5.711 -5.438 1.606 
5.734 -5.447 1.607 
5.75 -5.449 1.607 
5.773 -5.457 1.609 
5.793 -5.463 1.609 
5.803 -5.459 1.606 
5.814 -5.457 1.604 
5.836 -5.465 1.605 
5.837 -5.453 1.6 
5.846 -5.448 1.597 
5.86 -5.447 1.595 
5.87 -5.444 1.591 
5.879 -5.439 1.588 
5.884 -5.429 1.583 
5.888 -5.419 1.578 
5.906 -5.423 1.577 
5.918 -5.419 1.574 
5.924 -5.411 1.569 
5.922 -5.396 1.562 
5.935 -5.395 1.559 
5.95 -5.394 1.556 
5.949 -5.379 1.549 
5.962 -5.378 1.546 
5.974 -5.375 1.542 
5.979 -5.366 1.537 
5.994 -5.365 1.533 
6.001 -5.356 1.528 
6.002 -5.344 1.521 
6.014 -5.34 1.517 
6.031 -5.342 1.514 
6.036 -5.332 1.508 
6.036 -5.317 1.5 
6.045 -5.312 1.495 
6.057 -5.307 1.49 
6.061 -5.296 1.482 
6.085 -5.303 1.481 
6.084 -5.288 1.473 
6.09 -5.278 1.465 
6.111 -5.283 1.463 
6.107 -5.265 1.453 
6.125 -5.266 1.449 
6.129 -5.255 1.442 
6.135 -5.245 1.435 
6.147 -5.241 1.429 
6.161 -5.238 1.423 
6.17 -5.231 1.417 
6.181 -5.226 1.411 
6.19 -5.22 1.404 
6.191 -5.205 1.395 
6.212 -5.208 1.391 
6.224 -5.203 1.384 
6.222 -5.187 1.375 
6.23 -5.179 1.367 
6.257 -5.187 1.364 
6.26 -5.173 1.355 
6.268 -5.165 1.348 
6.272 -5.155 1.339 
6.291 -5.156 1.333 
6.297 -5.145 1.325 
6.304 -5.136 1.317 
6.32 -5.134 1.31 
6.334 -5.13 1.303 
6.329 -5.112 1.292 
6.346 -5.111 1.286 
6.357 -5.104 1.278 
6.371 -5.101 1.27 
6.381 -5.093 1.262 
6.397 -5.09 1.255 
6.41 -5.086 1.247 
6.411 -5.072 1.237 
6.41 -5.056 1.226 
6.43 -5.058 1.22 
6.437 -5.048 1.21 
6.454 -5.046 1.202 
6.459 -5.035 1.193 
6.469 -5.028 1.184 
6.484 -5.024 1.175 
6.496 -5.018 1.166 
6.499 -5.006 1.156 
6.512 -5.001 1.147 
6.513 -4.987 1.136 
6.532 -4.986 1.128 
6.537 -4.975 1.118 
6.548 -4.969 1.109 
6.554 -4.958 1.098 
6.569 -4.954 1.089 
6.584 -4.951 1.08 
6.599 -4.946 1.071 
6.609 -4.939 1.061 
6.623 -4.935 1.051 
6.62 -4.918 1.039 
6.629 -4.909 1.029 
6.647 -4.908 1.02 
6.652 -4.897 1.008 
6.669 -4.894 0.999 
6.673 -4.883 0.988 
6.694 -4.882 0.979 
6.696 -4.869 0.967 
6.705 -4.861 0.956 
6.725 -4.86 0.946 
6.735 -4.853 0.935 
6.738 -4.84 0.923 
6.762 -4.841 0.914 
6.756 -4.823 0.901 
6.78 -4.826 0.892 
6.791 -4.818 0.88 
6.791 -4.803 0.867 
6.797 -4.793 0.856 
6.816 -4.791 0.845 
6.813 -4.774 0.832 
6.641 -4.642 0.798 
6.603 -4.602 0.781 
6.658 -4.625 0.775 
6.693 -4.635 0.766 
6.57 -4.539 0.741 
6.459 -4.45 0.716 
6.42 -4.41 0.699 
6.378 -4.368 0.682 
6.437 -4.394 0.676 
6.473 -4.405 0.668 
6.441 -4.37 0.651 
6.455 -4.366 0.641 
6.494 -4.38 0.633 
6.529 -4.389 0.624 
6.555 -4.393 0.613 
6.583 -4.397 0.603 
6.586 -4.386 0.591 
6.598 -4.38 0.579 
6.607 -4.373 0.567 
6.611 -4.363 0.555 
6.699 -4.406 0.549 
6.803 -4.458 0.544 
6.875 -4.491 0.536 
6.978 -4.543 0.531 
7 -4.543 0.519 
6.995 -4.526 0.505 
6.998 -4.514 0.492 
6.987 -4.494 0.477 
6.975 -4.472 0.462 
6.956 -4.448 0.448 
6.949 -4.429 0.434 
6.849 -4.353 0.414 
6.783 -4.3 0.397 
6.758 -4.272 0.383 
6.765 -4.263 0.37 
6.773 -4.255 0.357 
6.778 -4.246 0.344 
6.788 -4.24 0.331 
6.804 -4.237 0.318 
6.813 -4.229 0.305 
6.841 -4.233 0.293 
6.882 -4.245 0.281 
6.913 -4.252 0.269 
6.911 -4.238 0.255 
6.916 -4.228 0.242 
6.929 -4.223 0.228 
6.955 -4.226 0.216 
6.958 -4.215 0.202 
6.963 -4.206 0.189 
6.972 -4.199 0.175 
6.986 -4.194 0.162 
6.994 -4.188 0.148 
6.993 -4.174 0.134 
7.028 -4.182 0.121 
7.028 -4.17 0.107 
7.039 -4.164 0.094 
7.044 -4.155 0.08 
7.054 -4.148 0.066 
7.056 -4.138 0.052 
7.077 -4.137 0.039 
7.087 -4.133 0.025 
7.104 -4.13 0.011 
7.107 -4.12 -0.002 
7.117 -4.115 -0.016 
7.122 -4.105 -0.03 
7.119 -4.092 -0.044 
7.135 -4.089 -0.058 
7.162 -4.092 -0.072 
7.16 -4.079 -0.086 
7.167 -4.072 -0.1 
7.185 -4.07 -0.115 
7.182 -4.057 -0.129 
7.161 -4.034 -0.143 
6.084 -3.433 -0.134 
6 -3.379 -0.143 
5.896 -3.312 -0.153 
5.94 -3.328 -0.166 
5.762 -3.221 -0.172 
5.746 -3.204 -0.182 
5.745 -3.194 -0.194 
5.767 -3.198 -0.206 
6.1 -3.367 -0.229 
-0.03 -0.088 0 
-0.03 -0.088 0 
4.94 -2.725 -0.214 
4.932 -2.713 -0.225 
4.939 -2.709 -0.234 
4.903 -2.684 -0.242 
4.925 -2.689 -0.252 
5.085 -2.765 -0.271 
5.226 -2.831 -0.288 
5.248 -2.835 -0.3 
5.31 -2.86 -0.314 
5.428 -2.913 -0.331 
5.361 -2.872 -0.338 
5.381 -2.874 -0.349 
5.427 -2.891 -0.362 
5.462 -2.901 -0.375 
5.39 -2.857 -0.381 
5.382 -2.846 -0.39 
5.43 -2.863 -0.403 
5.433 -2.858 -0.414 
5.347 -2.806 -0.418 
5.214 -2.733 -0.418 
5.046 -2.642 -0.415 
5.007 -2.615 -0.42 
5.055 -2.633 -0.434 
5.049 -2.623 -0.443 
4.991 -2.589 -0.447 
4.967 -2.571 -0.455 
4.99 -2.576 -0.466 
4.976 -2.562 -0.474 
4.96 -2.548 -0.482 
4.891 -2.509 -0.485 
4.94 -2.527 -0.499 
4.937 -2.519 -0.508 
4.909 -2.5 -0.514 
4.874 -2.478 -0.52 
4.756 -2.415 -0.516 
4.637 -2.351 -0.512 
4.619 -2.337 -0.518 
4.642 -2.343 -0.529 
-0.03 -0.088 0 
-0.03 -0.088 0 
4.149 -2.091 -0.497 
-0.03 -0.088 0 
3.377 -1.714 -0.417 
3.043 -1.552 -0.382 
3.104 -1.577 -0.395 
3.024 -1.536 -0.391 
2.955 -1.501 -0.387 
2.98 -1.509 -0.396 
2.957 -1.495 -0.398 
2.973 -1.499 -0.406 
3.002 -1.51 -0.415 
3.081 -1.545 -0.432 
3.407 -1.694 -0.483 
3.939 -1.938 -0.564 
4.021 -1.973 -0.584 
4.05 -1.982 -0.595 
4.012 -1.962 -0.597 
4.085 -1.992 -0.615 
4.49 -2.174 -0.684 
4.756 -2.293 -0.732 
4.578 -2.207 -0.713 
5.247 -2.511 -0.826 
5.249 -2.506 -0.835 
5.275 -2.514 -0.849 
5.265 -2.505 -0.856 
5.267 -2.502 -0.866 
5.269 -2.498 -0.875 
5.268 -2.493 -0.884 
5.292 -2.5 -0.897 
5.285 -2.493 -0.905 
5.284 -2.488 -0.914 
5.285 -2.485 -0.923 
5.288 -2.482 -0.933 
5.308 -2.487 -0.945 
5.3 -2.479 -0.953 
-0.03 -0.088 0 
5.246 -2.447 -0.96 
-0.03 -0.088 0 
-0.03 -0.088 0 
-0.03 -0.088 0 
-0.03 -0.088 0 
3.15 -1.5 -0.605 
3.138 -1.492 -0.608 
3.123 -1.483 -0.61 
3.11 -1.476 -0.613 
3.104 -1.471 -0.617 
3.13 -1.48 -0.627 
3.173 -1.498 -0.641 
3.165 -1.492 -0.644 
3.131 -1.475 -0.642 
3.095 -1.458 -0.64 
3.077 -1.448 -0.641 
3.053 -1.437 -0.641 
3.038 -1.428 -0.642 
3.034 -1.424 -0.646 
3.033 -1.423 -0.651 
3.019 -1.415 -0.653 
3.011 -1.41 -0.656 
3.007 -1.407 -0.66 
2.995 -1.4 -0.662 
2.994 -1.399 -0.667 
2.991 -1.396 -0.67 
2.988 -1.394 -0.674 
2.984 -1.39 -0.678 
2.983 -1.389 -0.682 
2.982 -1.387 -0.686 
2.977 -1.384 -0.69 
2.99 -1.388 -0.697 
2.992 -1.388 -0.702 
3.003 -1.392 -0.709 
3.016 -1.396 -0.717 
2.983 -1.381 -0.713 
3.023 -1.397 -0.727 
2.901 -1.344 -0.702 
2.927 -1.354 -0.712 
2.856 -1.323 -0.699 
2.862 -1.324 -0.704 
2.868 -1.327 -0.71 
2.815 -1.304 -0.702 
2.934 -1.353 -0.735 
2.851 -1.317 -0.718 
2.784 -1.288 -0.705 
2.797 -1.293 -0.713 
2.813 -1.299 -0.72 
2.812 -1.299 -0.724 
2.827 -1.303 -0.732 
2.856 -1.315 -0.742 
2.838 -1.308 -0.742 
2.884 -1.327 -0.757 
3.007 -1.378 -0.794 
2.918 -1.34 -0.774 
2.912 -1.337 -0.776 
2.902 -1.333 -0.777 
2.948 -1.352 -0.793 
2.893 -1.329 -0.782 
2.867 -1.318 -0.779 
2.867 -1.317 -0.782 
2.866 -1.317 -0.785 
2.84 -1.305 -0.782 
2.796 -1.286 -0.774 
2.897 -1.329 -0.804 
2.834 -1.302 -0.791 
2.806 -1.29 -0.787 
2.805 -1.29 -0.79 
2.801 -1.288 -0.792 
2.832 -1.302 -0.804 
2.87 -1.318 -0.817 
2.801 -1.289 -0.802 
2.869 -1.317 -0.823 
2.865 -1.316 -0.826 
2.799 -1.288 -0.811 
2.811 -1.294 -0.817 
2.806 -1.292 -0.819 
2.879 -1.323 -0.843 
2.829 -1.301 -0.831 
2.938 -1.349 -0.866 
2.942 -1.351 -0.87 
2.88 -1.325 -0.855 
3.066 -1.405 -0.913 
-0.03 -0.088 0 
-0.03 -0.088 0 
-0.03 -0.088 0 
-0.03 -0.088 0 
-0.03 -0.088 0 
-0.03 -0.088 0 
-0.03 -0.088 0 
-0.03 -0.088 0 
-0.03 -0.088 0 
-0.03 -0.088 0 
-0.03 -0.088 0 
-0.03 -0.088 0 
-0.03 -0.088 0 
-0.03 -0.088 0 
-0.03 -0.088 0 
2.961 -1.37 -0.927 
3.01 -1.392 -0.945 
3.025 -1.4 -0.952 
2.957 -1.372 -0.933 
3.002 -1.392 -0.95 
3.004 -1.393 -0.953 
-0.03 -0.088 0 
-0.03 -0.088 0 
4.001 -1.828 -1.275 
4.091 -1.867 -1.306 
-0.03 -0.088 0 
-0.03 -0.088 0 
-0.03 -0.088 0 
4.19 -1.917 -1.35 
-0.03 -0.088 0 
4.218 -1.932 -1.365 
4.217 -1.933 -1.367 
4.181 -1.919 -1.358 
4.198 -1.929 -1.367 
4.195 -1.93 -1.369 
4.2 -1.934 -1.373 
4.184 -1.928 -1.37 
4.177 -1.928 -1.37 
4.169 -1.925 -1.37 
4.153 -1.921 -1.367 
4.146 -1.921 -1.367 
4.145 -1.922 -1.369 
4.144 -1.924 -1.37 
4.142 -1.925 -1.372 
4.14 -1.926 -1.373 
4.135 -1.925 -1.373 
4.12 -1.922 -1.37 
4.133 -1.929 -1.377 
4.119 -1.926 -1.374 
4.114 -1.925 -1.374 
4.121 -1.931 -1.378 
4.12 -1.933 -1.379 
4.115 -1.932 -1.379 
4.107 -1.931 -1.378 
4.105 -1.934 -1.378 
4.099 -1.933 -1.378 
4.093 -1.932 -1.377 
4.094 -1.936 -1.379 
4.092 -1.938 -1.379 
4.087 -1.938 -1.379 
4.081 -1.938 -1.378 
4.081 -1.94 -1.379 
4.087 -1.946 -1.382 
4.071 -1.941 -1.378 
4.072 -1.944 -1.379 
4.07 -1.946 -1.379 
4.083 -1.955 -1.384 
4.083 -1.957 -1.385 
4.073 -1.956 -1.382 
4.065 -1.955 -1.38 
4.067 -1.958 -1.381 
4.074 -1.965 -1.384 
4.067 -1.965 -1.382 
4.071 -1.969 -1.383 
4.071 -1.971 -1.384 
4.054 -1.966 -1.378 
4.068 -1.976 -1.383 
4.065 -1.977 -1.382 
4.083 -1.988 -1.388 
4.063 -1.982 -1.381 
4.067 -1.988 -1.383 
4.073 -1.993 -1.384 
4.067 -1.993 -1.382 
4.07 -1.997 -1.383 
4.074 -2.002 -1.384 
4.068 -2.003 -1.382 
4.083 -2.012 -1.386 
4.072 -2.01 -1.382 
4.08 -2.017 -1.384 
4.083 -2.022 -1.383 
4.083 -2.025 -1.382 
4.091 -2.032 -1.384 
4.087 -2.033 -1.382 
4.087 -2.037 -1.381 
4.087 -2.04 -1.38 
4.103 -2.05 -1.384 
4.093 -2.049 -1.38 
4.105 -2.057 -1.383 
4.11 -2.063 -1.383 
4.104 -2.063 -1.38 
4.123 -2.075 -1.385 
4.119 -2.076 -1.382 
4.131 -2.086 -1.384 
4.129 -2.088 -1.382 
4.137 -2.096 -1.384 
4.134 -2.098 -1.381 
4.149 -2.108 -1.384 
4.143 -2.109 -1.38 
4.145 -2.113 -1.379 
4.158 -2.123 -1.381 
4.152 -2.123 -1.377 
4.162 -2.131 -1.378 
4.181 -2.144 -1.382 
4.189 -2.151 -1.383 
4.185 -2.152 -1.379 
4.201 -2.164 -1.381 
4.211 -2.171 -1.381 
4.215 -2.177 -1.38 
4.224 -2.185 -1.381 
4.223 -2.189 -1.378 
4.242 -2.2 -1.381 
4.242 -2.204 -1.378 
4.25 -2.212 -1.378 
4.258 -2.219 -1.378 
4.262 -2.225 -1.376 
4.273 -2.234 -1.376 
4.292 -2.247 -1.379 
4.297 -2.253 -1.378 
4.311 -2.263 -1.378 
4.309 -2.266 -1.375 
4.322 -2.276 -1.375 
4.322 -2.279 -1.371 
4.342 -2.293 -1.373 
4.358 -2.305 -1.375 
4.369 -2.314 -1.374 
4.372 -2.319 -1.371 
4.383 -2.328 -1.371 
4.387 -2.334 -1.368 
4.413 -2.351 -1.372 
4.425 -2.36 -1.372 
4.427 -2.364 -1.368 
4.44 -2.375 -1.368 
4.444 -2.38 -1.364 
4.467 -2.396 -1.366 
4.479 -2.406 -1.365 
4.488 -2.414 -1.363 
4.493 -2.421 -1.36 
4.511 -2.433 -1.361 
4.536 -2.449 -1.363 
4.548 -2.459 -1.362 
4.557 -2.467 -1.359 
4.568 -2.477 -1.358 
4.592 -2.493 -1.36 
4.593 -2.497 -1.354 
4.624 -2.517 -1.357 
4.639 -2.528 -1.356 
4.646 -2.535 -1.352 
4.67 -2.551 -1.354 
4.68 -2.56 -1.35 
4.698 -2.574 -1.35 
4.716 -2.587 -1.349 
4.733 -2.6 -1.348 
4.748 -2.61 -1.346 
4.765 -2.623 -1.344 
4.787 -2.639 -1.344 
4.808 -2.654 -1.343 
4.83 -2.669 -1.343 
4.859 -2.688 -1.344 
4.893 -2.709 -1.347 
4.898 -2.716 -1.341 
4.889 -2.715 -1.332 
4.893 -2.721 -1.326 
4.872 -2.712 -1.313 
4.866 -2.713 -1.304 
4.865 -2.716 -1.297 
4.861 -2.717 -1.288 
4.862 -2.721 -1.281 
4.848 -2.717 -1.27 
4.86 -2.727 -1.266 
4.857 -2.729 -1.258 
4.85 -2.728 -1.249 
4.861 -2.738 -1.244 
4.861 -2.741 -1.236 
4.867 -2.748 -1.23 
4.868 -2.752 -1.222 
4.854 -2.748 -1.211 
4.854 -2.751 -1.203 
4.837 -2.745 -1.191 
4.844 -2.752 -1.184 
4.832 -2.748 -1.173 
4.838 -2.754 -1.166 
4.821 -2.749 -1.154 
4.818 -2.75 -1.145 
4.808 -2.747 -1.134 
4.818 -2.757 -1.129 
4.803 -2.752 -1.117 
4.795 -2.749 -1.106 
4.807 -2.759 -1.1 
4.814 -2.766 -1.093 
4.873 -2.802 -1.097 
4.994 -2.872 -1.116 
4.84 -2.79 -1.072 
4.842 -2.793 -1.064 
4.843 -2.797 -1.055 
4.837 -2.796 -1.044 
-0.03 -0.088 0 
-0.03 -0.088 0 
5.851 -3.371 -1.23 
5.943 -3.425 -1.237 
5.966 -3.442 -1.231 
5.974 -3.45 -1.221 
5.969 -3.45 -1.209 
5.973 -3.455 -1.197 
5.973 -3.458 -1.186 
5.975 -3.463 -1.175 
5.981 -3.47 -1.164 
6.005 -3.485 -1.157 
6.012 -3.493 -1.146 
6.002 -3.491 -1.132 
6.017 -3.503 -1.123 
5.955 -3.469 -1.099 
5.129 -3.006 -0.936 
5.113 -3 -0.924 
5.097 -2.993 -0.911 
5.117 -3.007 -0.903 
5.083 -2.989 -0.887 
5.067 -2.983 -0.873 
5.148 -3.031 -0.876 
5.182 -3.052 -0.871 
5.245 -3.091 -0.871 
5.281 -3.114 -0.865 
5.324 -3.14 -0.86 
5.43 -3.203 -0.866 
5.498 -3.244 -0.865 
5.547 -3.274 -0.861 
5.487 -3.243 -0.839 
5.969 -3.521 -0.9 
5.973 -3.525 -0.887 
5.98 -3.531 -0.875 
5.97 -3.528 -0.86 
5.965 -3.527 -0.846 
5.964 -3.529 -0.833 
5.96 -3.529 -0.819 
5.953 -3.527 -0.806 
5.39 -3.205 -0.717 
4.88 -2.913 -0.639 
4.885 -2.918 -0.629 
4.896 -2.925 -0.618 
4.884 -2.921 -0.606 
4.918 -2.941 -0.598 
4.932 -2.952 -0.589 
5.049 -3.02 -0.592 
5.115 -3.061 -0.588 
5.15 -3.082 -0.58 
5.163 -3.091 -0.569 
5.178 -3.101 -0.559 
5.16 -3.093 -0.545 
5.147 -3.087 -0.532 
5.13 -3.078 -0.518 
5.103 -3.064 -0.503 
5.062 -3.042 -0.487 
5.007 -3.01 -0.47 
5.076 -3.052 -0.464 
5.17 -3.107 -0.461 
5.266 -3.164 -0.457 
5.391 -3.238 -0.455 
5.414 -3.254 -0.443 
5.438 -3.268 -0.433 
5.596 -3.361 -0.432 
5.645 -3.39 -0.422 
5.63 -3.383 -0.408 
5.626 -3.382 -0.394 
5.628 -3.384 -0.38 
5.627 -3.385 -0.367 
5.626 -3.385 -0.353 
5.612 -3.377 -0.339 
5.584 -3.362 -0.323 
5.543 -3.339 -0.308 
5.544 -3.34 -0.295 
5.568 -3.355 -0.282 
-0.03 -0.088 0 
-0.03 -0.088 0 
-0.03 -0.088 0 
-0.03 -0.088 0 
-0.03 -0.088 0 
5.872 -3.536 -0.212 
5.895 -3.551 -0.198 
5.879 -3.541 -0.183 
5.866 -3.534 -0.168 
6.954 -4.171 -0.181 
7.003 -4.2 -0.165 
6.988 -4.191 -0.148 
7.009 -4.204 -0.131 
7.001 -4.199 -0.113 
7.008 -4.203 -0.096 
6.996 -4.197 -0.079 
6.989 -4.193 -0.061 
6.996 -4.197 -0.044 
6.996 -4.198 -0.026 
6.991 -4.195 -0.009 
6.999 -4.199 0.007 
7.002 -4.2 0.025 
6.997 -4.198 0.041 
6.984 -4.19 0.059 
6.989 -4.193 0.076 
7.012 -4.206 0.094 
7.003 -4.2 0.111 
6.998 -4.197 0.128 
6.99 -4.192 0.146 
6.99 -4.191 0.163 
7.009 -4.202 0.181 
6.994 -4.193 0.198 
7.006 -4.199 0.216 
6.991 -4.19 0.233 
6.994 -4.191 0.25 
6.994 -4.191 0.267 
7.002 -4.194 0.285 
6.992 -4.187 0.302 
7.001 -4.192 0.32 
7.003 -4.192 0.338 
6.993 -4.185 0.355 
6.992 -4.183 0.372 
6.997 -4.186 0.39 
7.013 -4.194 0.408 
7 -4.185 0.424 
7.014 -4.192 0.443 
6.994 -4.179 0.459 
6.999 -4.181 0.476 
6.992 -4.176 0.493 
6.99 -4.173 0.51 
7.009 -4.183 0.529 
6.998 -4.175 0.545 
7.001 -4.175 0.563 
6.999 -4.173 0.58 
7.007 -4.175 0.598 
7.008 -4.174 0.615 
7 -4.168 0.631 
7.012 -4.172 0.649 
6.999 -4.164 0.665 
7.014 -4.17 0.684 
7.024 -4.175 0.702 
7.008 -4.163 0.718 
7.009 -4.162 0.735 
7.018 -4.165 0.753 
7.013 -4.16 0.769 
7.012 -4.157 0.786 
7.013 -4.157 0.803 
7.016 -4.156 0.82 
7.025 -4.159 0.838 
7.018 -4.153 0.854 
7.026 -4.155 0.872 
7.016 -4.146 0.888 
7.023 -4.148 0.905 
7.025 -4.147 0.922 
7.038 -4.152 0.94 
7.02 -4.139 0.955 
7.033 -4.143 0.973 
7.032 -4.14 0.99 
7.029 -4.136 1.006 
7.039 -4.139 1.024 
7.033 -4.133 1.04 
7.04 -4.134 1.057 
7.054 -4.14 1.076 
7.041 -4.129 1.09 
7.05 -4.13 1.108 
7.049 -4.127 1.124 
7.051 -4.125 1.141 
7.053 -4.124 1.157 
7.051 -4.119 1.173 
7.057 -4.119 1.19 
7.059 -4.119 1.207 
7.049 -4.11 1.221 
7.059 -4.112 1.239 
7.057 -4.107 1.254 
7.067 -4.109 1.272 
7.076 -4.111 1.29 
7.079 -4.109 1.306 
7.068 -4.099 1.319 
7.064 -4.093 1.334 
7.08 -4.099 1.353 
7.075 -4.093 1.367 
7.087 -4.096 1.386 
7.077 -4.087 1.398 
7.094 -4.092 1.418 
7.091 -4.087 1.431 
7.098 -4.087 1.449 
7.09 -4.079 1.462 
7.109 -4.086 1.482 
7.1 -4.076 1.494 
7.099 -4.071 1.509 
7.114 -4.077 1.527 
7.114 -4.072 1.542 
7.102 -4.06 1.554 
7.112 -4.061 1.571 
7.121 -4.063 1.588 
7.117 -4.057 1.601 
7.133 -4.06 1.619 
7.125 -4.052 1.632 
7.124 -4.047 1.647 
7.137 -4.05 1.664 
7.123 -4.039 1.675 
7.144 -4.046 1.695 
7.152 -4.046 1.711 
7.15 -4.04 1.724 
7.142 -4.03 1.736 
7.146 -4.028 1.751 
7.155 -4.028 1.768 
7.151 -4.02 1.78 
7.149 -4.015 1.794 
7.121 -3.995 1.8 
7.071 -3.964 1.802 
6.978 -3.907 1.791 
6.919 -3.871 1.789 
6.839 -3.822 1.781 
6.785 -3.788 1.779 
6.71 -3.743 1.773 
6.654 -3.708 1.77 
6.587 -3.667 1.764 
6.544 -3.639 1.765 
6.459 -3.588 1.753 
6.403 -3.553 1.75 
6.343 -3.517 1.744 
6.297 -3.487 1.743 
6.233 -3.448 1.736 
6.185 -3.418 1.734 
6.137 -3.387 1.73 
6.091 -3.358 1.728 
6.049 -3.331 1.727 
6.017 -3.309 1.729 
5.958 -3.274 1.721 
5.904 -3.241 1.716 
5.86 -3.212 1.713 
5.829 -3.191 1.712 
5.788 -3.165 1.71 
5.73 -3.13 1.703 
5.711 -3.116 1.706 
5.674 -3.091 1.703 
5.618 -3.057 1.696 
5.602 -3.044 1.699 
5.552 -3.013 1.693 
5.529 -2.997 1.695 
5.508 -2.982 1.696 
5.471 -2.958 1.693 
5.416 -2.925 1.684 
5.382 -2.903 1.682 
5.342 -2.878 1.676 
5.328 -2.865 1.68 
5.298 -2.846 1.678 
5.275 -2.829 1.678 
5.234 -2.804 1.673 
5.21 -2.788 1.672 
5.194 -2.775 1.674 
5.168 -2.757 1.673 
5.143 -2.739 1.671 
5.13 -2.728 1.674 
5.093 -2.705 1.669 
5.074 -2.692 1.669 
5.046 -2.673 1.667 
5.028 -2.66 1.666 
5.016 -2.65 1.669 
4.994 -2.634 1.668 
4.968 -2.617 1.665 
4.957 -2.606 1.667 
4.924 -2.586 1.663 
4.907 -2.573 1.662 
4.886 -2.558 1.661 
4.861 -2.541 1.658 
4.847 -2.529 1.658 
4.829 -2.517 1.658 
