ply
format ascii 1.0
element vertex 2429
property float x
property float y
property float z
end_header
6.529 -4.62 0.029 
6.534 -4.605 0.033 
6.555 -4.6 0.037 
6.552 -4.579 0.041 
6.399 -4.454 0.043 
6.423 -4.451 0.047 
6.425 -4.434 0.051 
6.423 -4.413 0.055 
6.517 -4.456 0.059 
6.523 -4.441 0.062 
6.608 -4.478 0.066 
6.675 -4.502 0.071 
6.778 -4.55 0.076 
6.798 -4.542 0.08 
6.778 -4.51 0.083 
6.823 -4.52 0.087 
6.894 -4.545 0.091 
6.929 -4.547 0.096 
6.939 -4.533 0.1 
6.941 -4.513 0.102 
6.925 -4.482 0.105 
6.947 -4.476 0.109 
6.958 -4.463 0.113 
6.921 -4.419 0.116 
6.936 -4.409 0.119 
6.982 -4.417 0.123 
6.839 -4.309 0.123 
6.782 -4.255 0.126 
6.808 -4.25 0.129 
6.807 -4.23 0.132 
6.82 -4.219 0.134 
6.852 -4.217 0.138 
6.915 -4.236 0.142 
6.929 -4.224 0.145 
6.942 -4.212 0.148 
6.956 -4.199 0.151 
6.983 -4.195 0.155 
6.996 -4.183 0.157 
7.01 -4.171 0.16 
7.021 -4.158 0.163 
7.049 -4.154 0.166 
7.068 -4.145 0.169 
7.068 -4.126 0.172 
7.094 -4.121 0.175 
7.092 -4.099 0.177 
7.116 -4.093 0.18 
7.13 -4.08 0.183 
7.146 -4.07 0.185 
7.156 -4.054 0.187 
7.189 -4.054 0.191 
7.201 -4.041 0.192 
7.208 -4.025 0.194 
7.22 -4.011 0.197 
7.248 -4.006 0.199 
7.261 -3.993 0.202 
7.283 -3.985 0.204 
7.294 -3.972 0.206 
7.311 -3.96 0.209 
7.329 -3.95 0.211 
7.327 -3.929 0.213 
7.351 -3.922 0.215 
7.356 -3.904 0.217 
7.384 -3.899 0.219 
7.404 -3.89 0.221 
7.408 -3.872 0.223 
7.43 -3.864 0.225 
7.449 -3.854 0.227 
7.446 -3.832 0.228 
7.433 -3.807 0.229 
7.408 -3.775 0.23 
7.394 -3.749 0.23 
7.376 -3.721 0.231 
7.38 -3.704 0.232 
7.397 -3.693 0.234 
7.407 -3.679 0.235 
7.423 -3.668 0.237 
7.435 -3.655 0.238 
7.46 -3.647 0.24 
7.483 -3.639 0.241 
7.499 -3.628 0.243 
7.508 -3.613 0.244 
7.52 -3.599 0.245 
7.541 -3.591 0.246 
7.554 -3.578 0.247 
7.574 -3.568 0.249 
7.571 -3.548 0.249 
7.606 -3.546 0.25 
7.621 -3.534 0.252 
7.634 -3.52 0.252 
7.652 -3.51 0.252 
7.666 -3.497 0.254 
7.687 -3.488 0.255 
7.69 -3.472 0.256 
7.71 -3.461 0.256 
7.734 -3.453 0.257 
7.753 -3.443 0.258 
7.761 -3.428 0.258 
7.777 -3.417 0.259 
7.805 -3.411 0.26 
7.807 -3.394 0.259 
7.83 -3.384 0.259 
7.844 -3.373 0.26 
7.879 -3.369 0.262 
7.895 -3.358 0.262 
7.899 -3.341 0.261 
7.919 -3.332 0.261 
7.926 -3.317 0.261 
7.939 -3.304 0.261 
7.963 -3.296 0.261 
7.983 -3.287 0.261 
7.986 -3.27 0.261 
8.012 -3.263 0.261 
8.021 -3.248 0.261 
8.043 -3.239 0.261 
8.056 -3.227 0.26 
8.427 -3.353 0.272 
8.601 -3.401 0.277 
8.593 -3.38 0.275 
8.567 -3.352 0.273 
8.548 -3.326 0.272 
8.55 -3.309 0.271 
8.528 -3.284 0.269 
8.511 -3.259 0.268 
8.491 -3.234 0.265 
8.473 -3.21 0.263 
8.462 -3.189 0.262 
8.441 -3.164 0.26 
8.427 -3.142 0.258 
8.418 -3.121 0.256 
8.403 -3.099 0.254 
8.386 -3.076 0.252 
8.359 -3.051 0.249 
8.355 -3.032 0.248 
8.342 -3.011 0.246 
8.368 -3.004 0.245 
8.372 -2.989 0.243 
8.379 -2.976 0.242 
8.39 -2.964 0.24 
8.405 -2.953 0.239 
8.429 -2.945 0.238 
8.441 -2.933 0.236 
8.463 -2.925 0.234 
8.48 -2.915 0.233 
8.492 -2.903 0.231 
8.497 -2.89 0.228 
8.528 -2.884 0.228 
8.531 -2.87 0.224 
8.555 -2.862 0.223 
8.556 -2.848 0.22 
8.579 -2.84 0.219 
8.591 -2.828 0.217 
8.597 -2.816 0.214 
8.614 -2.806 0.212 
8.642 -2.8 0.21 
8.645 -2.787 0.208 
8.656 -2.775 0.205 
8.675 -2.766 0.203 
8.693 -2.758 0.201 
8.711 -2.749 0.198 
8.72 -2.737 0.196 
8.726 -2.724 0.193 
8.76 -2.72 0.191 
8.766 -2.709 0.188 
8.788 -2.7 0.185 
8.789 -2.687 0.182 
8.806 -2.678 0.18 
8.824 -2.67 0.177 
8.836 -2.66 0.174 
8.845 -2.649 0.171 
8.864 -2.641 0.168 
8.885 -2.634 0.165 
8.877 -2.619 0.161 
8.902 -2.612 0.158 
8.912 -2.602 0.155 
8.93 -2.595 0.152 
8.943 -2.585 0.149 
8.954 -2.576 0.145 
8.961 -2.565 0.142 
8.978 -2.558 0.138 
8.996 -2.55 0.135 
9.004 -2.539 0.131 
9.017 -2.531 0.128 
9.036 -2.524 0.124 
9.036 -2.511 0.12 
9.051 -2.504 0.117 
9.082 -2.501 0.113 
9.084 -2.489 0.109 
9.093 -2.479 0.105 
9.116 -2.474 0.101 
9.122 -2.465 0.097 
9.133 -2.456 0.093 
9.143 -2.447 0.089 
9.162 -2.442 0.085 
9.174 -2.434 0.081 
9.179 -2.424 0.077 
9.189 -2.416 0.073 
9.202 -2.409 0.069 
9.214 -2.401 0.064 
9.216 -2.391 0.06 
9.236 -2.385 0.056 
9.247 -2.379 0.051 
9.26 -2.371 0.047 
9.269 -2.364 0.042 
9.273 -2.354 0.038 
9.287 -2.349 0.035 
9.296 -2.341 0.03 
9.307 -2.334 0.024 
9.334 -2.332 0.021 
9.325 -2.32 0.015 
9.349 -2.316 0.01 
9.359 -2.309 0.005 
9.365 -2.302 0 
9.379 -2.297 -0.003 
9.376 -2.287 -0.008 
9.398 -2.283 -0.013 
9.408 -2.277 -0.018 
9.403 -2.268 -0.023 
9.434 -2.267 -0.028 
9.422 -2.257 -0.033 
9.435 -2.252 -0.038 
9.45 -2.246 -0.043 
9.448 -2.238 -0.048 
9.467 -2.235 -0.053 
9.471 -2.229 -0.058 
9.483 -2.224 -0.063 
9.491 -2.219 -0.069 
9.505 -2.214 -0.074 
9.506 -2.208 -0.079 
9.518 -2.203 -0.084 
9.518 -2.197 -0.089 
9.518 -2.191 -0.095 
9.522 -2.185 -0.1 
9.534 -2.182 -0.105 
9.551 -2.178 -0.111 
9.547 -2.172 -0.116 
9.544 -2.166 -0.121 
9.558 -2.162 -0.127 
9.548 -2.155 -0.131 
-0.03 -0.088 0 
-0.03 -0.088 0 
-0.03 -0.088 0 
-0.03 -0.088 0 
-0.03 -0.088 0 
6.924 -1.566 -0.119 
-0.03 -0.088 0 
-0.03 -0.088 0 
7.455 -1.668 -0.14 
7.452 -1.663 -0.145 
7.46 -1.662 -0.149 
7.453 -1.657 -0.153 
7.476 -1.659 -0.158 
7.474 -1.655 -0.162 
7.453 -1.649 -0.165 
7.491 -1.654 -0.17 
7.504 -1.654 -0.175 
7.515 -1.654 -0.18 
7.525 -1.653 -0.184 
7.527 -1.651 -0.189 
7.613 -1.666 -0.194 
7.644 -1.67 -0.2 
5.03 -1.13 -0.134 
5.036 -1.13 -0.137 
5.001 -1.121 -0.139 
4.942 -1.108 -0.14 
4.93 -1.105 -0.143 
4.936 -1.105 -0.145 
4.948 -1.106 -0.149 
4.953 -1.107 -0.152 
4.939 -1.103 -0.154 
4.94 -1.103 -0.156 
4.94 -1.102 -0.159 
4.932 -1.099 -0.162 
4.937 -1.1 -0.165 
4.939 -1.1 -0.168 
4.932 -1.099 -0.17 
4.922 -1.096 -0.172 
4.93 -1.097 -0.175 
4.946 -1.101 -0.179 
4.952 -1.102 -0.181 
4.965 -1.104 -0.185 
5.008 -1.113 -0.189 
5.084 -1.129 -0.195 
5.044 -1.121 -0.196 
5.069 -1.126 -0.2 
5.099 -1.133 -0.204 
5.039 -1.12 -0.204 
5.103 -1.134 -0.21 
5.144 -1.143 -0.214 
5.11 -1.137 -0.215 
5.074 -1.13 -0.216 
5.057 -1.127 -0.218 
4.963 -1.108 -0.216 
4.843 -1.085 -0.214 
4.536 -1.023 -0.203 
4.23 -0.961 -0.191 
4.355 -0.987 -0.198 
4.309 -0.979 -0.199 
4.571 -1.034 -0.214 
4.751 -1.072 -0.224 
4.664 -1.055 -0.222 
4.625 -1.049 -0.222 
4.217 -0.966 -0.205 
4.224 -0.969 -0.207 
4.219 -0.969 -0.209 
4.209 -0.969 -0.211 
4.208 -0.969 -0.213 
4.206 -0.97 -0.215 
4.198 -0.97 -0.216 
4.199 -0.972 -0.218 
4.2 -0.974 -0.22 
4.195 -0.975 -0.222 
4.201 -0.978 -0.224 
4.204 -0.981 -0.226 
4.206 -0.983 -0.228 
4.207 -0.985 -0.23 
4.207 -0.987 -0.232 
4.21 -0.99 -0.234 
4.206 -0.992 -0.236 
4.211 -0.994 -0.238 
4.202 -0.995 -0.239 
4.21 -0.999 -0.241 
4.229 -1.005 -0.244 
4.391 -1.043 -0.255 
4.435 -1.055 -0.259 
4.586 -1.091 -0.269 
4.573 -1.09 -0.27 
4.63 -1.105 -0.276 
4.678 -1.119 -0.281 
4.7 -1.126 -0.284 
4.718 -1.134 -0.287 
4.73 -1.14 -0.289 
4.75 -1.148 -0.292 
4.757 -1.152 -0.294 
4.748 -1.154 -0.296 
4.739 -1.156 -0.297 
4.755 -1.163 -0.299 
4.738 -1.162 -0.3 
4.72 -1.162 -0.3 
4.718 -1.166 -0.302 
4.702 -1.166 -0.302 
4.67 -1.162 -0.302 
4.625 -1.155 -0.3 
4.588 -1.151 -0.299 
4.569 -1.15 -0.299 
4.56 -1.152 -0.3 
4.527 -1.148 -0.299 
4.521 -1.151 -0.3 
4.549 -1.161 -0.303 
4.575 -1.172 -0.306 
4.637 -1.191 -0.312 
4.678 -1.205 -0.315 
4.687 -1.211 -0.317 
4.681 -1.215 -0.317 
4.686 -1.22 -0.319 
4.661 -1.219 -0.318 
4.613 -1.212 -0.317 
4.649 -1.226 -0.319 
4.656 -1.232 -0.321 
4.679 -1.242 -0.324 
4.682 -1.248 -0.325 
4.678 -1.251 -0.325 
4.662 -1.253 -0.325 
4.667 -1.259 -0.326 
4.671 -1.266 -0.328 
4.66 -1.267 -0.328 
4.648 -1.27 -0.327 
4.634 -1.271 -0.327 
4.632 -1.277 -0.328 
4.595 -1.272 -0.326 
4.56 -1.268 -0.324 
4.549 -1.271 -0.324 
4.541 -1.274 -0.323 
4.535 -1.278 -0.324 
4.527 -1.282 -0.323 
4.535 -1.289 -0.325 
4.526 -1.292 -0.324 
4.482 -1.286 -0.321 
-0.03 -0.088 0 
-0.03 -0.088 0 
-0.03 -0.088 0 
3.734 -1.107 -0.269 
3.813 -1.134 -0.275 
3.818 -1.14 -0.276 
3.816 -1.144 -0.276 
3.814 -1.149 -0.276 
3.818 -1.155 -0.276 
3.827 -1.163 -0.277 
3.828 -1.169 -0.277 
3.827 -1.174 -0.277 
3.828 -1.179 -0.277 
3.832 -1.186 -0.277 
3.829 -1.19 -0.277 
3.829 -1.196 -0.277 
3.84 -1.204 -0.278 
3.84 -1.21 -0.278 
3.841 -1.215 -0.277 
3.839 -1.221 -0.276 
3.841 -1.227 -0.276 
3.842 -1.233 -0.276 
3.841 -1.238 -0.275 
3.843 -1.245 -0.275 
3.842 -1.25 -0.275 
3.865 -1.263 -0.276 
3.872 -1.272 -0.276 
3.868 -1.277 -0.276 
3.872 -1.284 -0.275 
3.87 -1.289 -0.275 
3.875 -1.297 -0.274 
3.878 -1.304 -0.274 
3.879 -1.31 -0.273 
3.88 -1.317 -0.273 
3.883 -1.324 -0.272 
3.887 -1.332 -0.272 
3.889 -1.339 -0.271 
3.887 -1.345 -0.27 
3.887 -1.352 -0.27 
3.898 -1.362 -0.27 
3.897 -1.368 -0.269 
3.899 -1.375 -0.267 
3.899 -1.382 -0.266 
3.902 -1.389 -0.265 
3.908 -1.398 -0.265 
3.906 -1.404 -0.263 
3.902 -1.41 -0.262 
3.904 -1.418 -0.261 
3.909 -1.426 -0.26 
3.908 -1.433 -0.259 
3.914 -1.442 -0.258 
3.911 -1.448 -0.257 
3.914 -1.456 -0.256 
3.918 -1.464 -0.255 
3.922 -1.473 -0.254 
3.921 -1.479 -0.252 
3.921 -1.487 -0.25 
3.921 -1.494 -0.249 
3.921 -1.501 -0.248 
3.931 -1.512 -0.247 
3.929 -1.519 -0.245 
3.933 -1.528 -0.244 
3.937 -1.537 -0.242 
3.941 -1.546 -0.24 
3.94 -1.553 -0.238 
3.948 -1.563 -0.237 
3.947 -1.571 -0.235 
3.937 -1.574 -0.233 
3.889 -1.565 -0.228 
4.067 -1.64 -0.237 
4.188 -1.693 -0.242 
4.579 -1.851 -0.262 
4.88 -1.976 -0.277 
5.097 -2.07 -0.287 
5.079 -2.072 -0.283 
5.102 -2.092 -0.282 
5.133 -2.115 -0.28 
5.141 -2.128 -0.277 
5.213 -2.167 -0.279 
5.159 -2.155 -0.273 
5.246 -2.2 -0.275 
5.262 -2.219 -0.272 
5.156 -2.186 -0.264 
5.082 -2.167 -0.257 
5.193 -2.222 -0.26 
5.212 -2.241 -0.256 
5.185 -2.24 -0.252 
5.192 -2.255 -0.249 
5.178 -2.26 -0.245 
5.138 -2.254 -0.24 
5.202 -2.291 -0.239 
5.219 -2.31 -0.236 
5.224 -2.323 -0.233 
5.209 -2.329 -0.229 
5.161 -2.319 -0.223 
5.205 -2.35 -0.221 
5.139 -2.331 -0.215 
5.124 -2.337 -0.21 
5.134 -2.352 -0.207 
5.116 -2.355 -0.202 
5.121 -2.368 -0.199 
5.135 -2.387 -0.196 
5.15 -2.404 -0.192 
5.123 -2.404 -0.187 
5.122 -2.415 -0.183 
5.117 -2.424 -0.179 
5.123 -2.437 -0.175 
5.108 -2.443 -0.17 
5.115 -2.457 -0.166 
5.125 -2.473 -0.162 
5.139 -2.491 -0.158 
5.137 -2.502 -0.154 
5.134 -2.511 -0.149 
5.143 -2.528 -0.145 
5.132 -2.534 -0.14 
5.133 -2.546 -0.136 
5.138 -2.561 -0.132 
5.131 -2.57 -0.127 
5.169 -2.599 -0.123 
5.173 -2.613 -0.118 
6.319 -3.184 -0.138 
6.356 -3.216 -0.133 
6.314 -3.211 -0.126 
6.162 -3.151 -0.118 
5.407 -2.79 -0.098 
5.946 -3.072 -0.102 
6.289 -3.258 -0.102 
6.638 -3.448 -0.101 
7.441 -3.87 -0.106 
7.426 -3.88 -0.099 
7.42 -3.895 -0.091 
7.394 -3.898 -0.083 
7.383 -3.91 -0.075 
7.36 -3.916 -0.068 
7.359 -3.934 -0.06 
7.354 -3.948 -0.052 
7.319 -3.947 -0.044 
7.317 -3.964 -0.036 
7.307 -3.976 -0.029 
7.288 -3.983 -0.021 
7.271 -3.992 -0.013 
7.258 -4.002 -0.004 
7.249 -4.014 0.002 
7.23 -4.021 0.01 
7.222 -4.035 0.02 
7.196 -4.038 0.027 
7.179 -4.047 0.035 
7.163 -4.056 0.042 
7.163 -4.074 0.051 
7.135 -4.074 0.059 
7.147 -4.099 0.068 
7.112 -4.097 0.076 
7.11 -4.113 0.084 
7.082 -4.115 0.092 
7.074 -4.129 0.101 
7.061 -4.137 0.109 
7.036 -4.14 0.117 
7.034 -4.156 0.126 
7.024 -4.168 0.134 
7.015 -4.18 0.143 
6.998 -4.187 0.151 
6.988 -4.199 0.16 
6.967 -4.204 0.169 
6.957 -4.216 0.177 
6.943 -4.225 0.186 
6.929 -4.233 0.194 
6.893 -4.228 0.202 
6.846 -4.218 0.21 
6.828 -4.224 0.218 
6.816 -4.234 0.227 
6.799 -4.241 0.236 
6.783 -4.249 0.244 
6.766 -4.255 0.252 
6.855 -4.326 0.265 
6.853 -4.342 0.274 
6.855 -4.361 0.283 
6.788 -4.337 0.29 
6.845 -4.388 0.302 
6.99 -4.498 0.318 
7 -4.521 0.329 
6.986 -4.53 0.338 
6.939 -4.517 0.345 
6.921 -4.523 0.354 
6.935 -4.549 0.365 
6.9 -4.544 0.372 
6.943 -4.589 0.385 
6.922 -4.593 0.394 
6.921 -4.611 0.404 
6.903 -4.616 0.413 
6.888 -4.623 0.422 
6.88 -4.635 0.432 
6.85 -4.632 0.441 
6.839 -4.643 0.45 
6.669 -4.546 0.449 
6.503 -4.452 0.447 
6.488 -4.459 0.456 
6.475 -4.466 0.465 
6.398 -4.431 0.47 
6.398 -4.446 0.479 
6.387 -4.455 0.488 
6.376 -4.464 0.497 
6.376 -4.479 0.507 
6.445 -4.542 0.522 
6.349 -4.492 0.525 
6.34 -4.502 0.534 
6.33 -4.51 0.543 
6.317 -4.516 0.552 
6.332 -4.543 0.563 
6.32 -4.55 0.572 
6.323 -4.568 0.582 
6.296 -4.564 0.59 
6.303 -4.585 0.601 
6.297 -4.595 0.61 
6.309 -4.62 0.621 
6.308 -4.635 0.632 
6.302 -4.647 0.642 
6.308 -4.665 0.653 
6.315 -4.686 0.664 
6.33 -4.712 0.676 
6.491 -4.844 0.703 
6.565 -4.915 0.723 
6.59 -4.949 0.736 
6.58 -4.957 0.746 
6.56 -4.959 0.755 
6.557 -4.972 0.765 
6.544 -4.978 0.775 
6.541 -4.991 0.786 
6.521 -4.992 0.794 
6.515 -5.003 0.805 
6.506 -5.012 0.815 
6.497 -5.02 0.825 
6.491 -5.032 0.835 
6.474 -5.034 0.844 
6.474 -5.048 0.855 
6.447 -5.043 0.863 
6.443 -5.055 0.873 
6.437 -5.065 0.883 
6.422 -5.068 0.892 
6.412 -5.077 0.902 
6.403 -5.084 0.912 
6.397 -5.094 0.923 
6.377 -5.093 0.931 
6.368 -5.1 0.941 
6.368 -5.114 0.952 
6.363 -5.124 0.962 
6.349 -5.127 0.971 
6.338 -5.133 0.981 
6.319 -5.132 0.989 
6.314 -5.142 0.999 
6.309 -5.153 1.01 
6.306 -5.164 1.021 
6.293 -5.167 1.03 
6.284 -5.174 1.04 
6.274 -5.18 1.049 
6.261 -5.183 1.058 
6.258 -5.194 1.069 
6.216 -5.172 1.073 
6.074 -5.07 1.06 
5.99 -5.015 1.056 
5.934 -4.981 1.057 
5.914 -4.978 1.064 
5.873 -4.955 1.067 
5.862 -4.958 1.076 
5.851 -4.962 1.084 
5.838 -4.963 1.093 
5.838 -4.974 1.103 
5.811 -4.963 1.109 
5.822 -4.984 1.121 
5.845 -5.016 1.136 
5.852 -5.032 1.149 
5.862 -5.053 1.161 
5.915 -5.11 1.182 
6.013 -5.203 1.213 
6.038 -5.237 1.229 
6.083 -5.287 1.248 
6.085 -5.3 1.261 
6.077 -5.306 1.27 
6.069 -5.309 1.279 
6.078 -5.327 1.292 
6.059 -5.324 1.299 
6.046 -5.323 1.308 
6.03 -5.321 1.315 
6.049 -5.348 1.33 
6.022 -5.335 1.335 
6.021 -5.344 1.346 
6.016 -5.351 1.355 
6.014 -5.36 1.366 
5.995 -5.354 1.373 
5.985 -5.355 1.381 
5.987 -5.366 1.392 
5.984 -5.375 1.402 
5.974 -5.376 1.411 
5.958 -5.372 1.418 
5.965 -5.387 1.43 
5.952 -5.385 1.437 
5.94 -5.384 1.445 
5.935 -5.39 1.455 
5.942 -5.405 1.467 
5.919 -5.393 1.472 
5.92 -5.404 1.483 
5.909 -5.402 1.49 
5.904 -5.406 1.499 
5.908 -5.419 1.511 
5.902 -5.422 1.52 
5.897 -5.426 1.529 
5.888 -5.427 1.537 
5.875 -5.423 1.544 
5.882 -5.437 1.556 
5.882 -5.445 1.566 
5.877 -5.449 1.575 
5.862 -5.443 1.581 
5.859 -5.448 1.59 
5.867 -5.463 1.602 
5.856 -5.46 1.61 
5.831 -5.444 1.613 
5.811 -5.433 1.617 
5.773 -5.406 1.616 
5.73 -5.373 1.613 
5.665 -5.32 1.605 
5.616 -5.281 1.6 
5.575 -5.249 1.598 
5.545 -5.227 1.599 
5.501 -5.193 1.596 
5.466 -5.168 1.593 
5.422 -5.132 1.59 
5.372 -5.091 1.585 
5.334 -5.062 1.581 
5.3 -5.035 1.58 
5.259 -5.003 1.576 
5.229 -4.979 1.576 
5.2 -4.956 1.574 
5.161 -4.925 1.571 
5.134 -4.904 1.571 
5.097 -4.874 1.568 
5.062 -4.846 1.564 
5.045 -4.834 1.567 
5.007 -4.803 1.563 
4.982 -4.783 1.563 
4.956 -4.762 1.563 
4.918 -4.73 1.557 
4.89 -4.708 1.556 
4.859 -4.682 1.554 
4.828 -4.656 1.551 
4.81 -4.641 1.552 
4.778 -4.615 1.55 
4.757 -4.597 1.548 
4.729 -4.575 1.546 
4.719 -4.566 1.55 
4.696 -4.548 1.549 
4.659 -4.515 1.544 
4.641 -4.5 1.544 
4.625 -4.488 1.544 
4.593 -4.459 1.54 
4.571 -4.441 1.539 
4.549 -4.422 1.538 
4.542 -4.416 1.541 
4.523 -4.401 1.541 
4.489 -4.37 1.534 
4.473 -4.356 1.535 
4.456 -4.342 1.535 
4.42 -4.309 1.528 
4.408 -4.297 1.53 
4.387 -4.278 1.528 
4.369 -4.263 1.527 
4.35 -4.246 1.525 
4.338 -4.235 1.526 
4.32 -4.218 1.525 
4.303 -4.203 1.524 
4.285 -4.186 1.522 
4.271 -4.172 1.522 
4.258 -4.16 1.522 
4.243 -4.146 1.522 
4.228 -4.131 1.52 
4.209 -4.114 1.518 
4.201 -4.107 1.52 
4.198 -4.103 1.523 
4.172 -4.078 1.518 
4.168 -4.074 1.521 
4.157 -4.061 1.52 
4.148 -4.054 1.521 
4.132 -4.038 1.52 
4.113 -4.019 1.517 
4.104 -4.01 1.516 
4.102 -4.007 1.519 
4.097 -4 1.521 
4.09 -3.993 1.522 
4.066 -3.969 1.517 
4.061 -3.964 1.519 
4.045 -3.947 1.516 
4.04 -3.942 1.517 
4.027 -3.927 1.515 
4.005 -3.904 1.51 
4.007 -3.905 1.514 
3.994 -3.89 1.512 
3.98 -3.875 1.509 
3.983 -3.877 1.513 
3.981 -3.874 1.515 
3.959 -3.85 1.509 
3.961 -3.85 1.513 
3.958 -3.845 1.514 
3.949 -3.835 1.513 
3.942 -3.825 1.512 
3.938 -3.819 1.513 
3.929 -3.808 1.512 
3.93 -3.806 1.514 
3.916 -3.79 1.511 
3.909 -3.782 1.511 
3.911 -3.781 1.513 
3.907 -3.775 1.514 
3.892 -3.759 1.51 
3.89 -3.753 1.51 
3.894 -3.754 1.514 
3.882 -3.739 1.509 
3.884 -3.738 1.511 
3.877 -3.728 1.51 
3.878 -3.727 1.512 
3.88 -3.724 1.513 
3.867 -3.708 1.51 
3.864 -3.703 1.51 
3.868 -3.702 1.512 
3.858 -3.691 1.51 
3.862 -3.689 1.511 
3.855 -3.68 1.51 
3.866 -3.686 1.514 
3.865 -3.682 1.515 
3.856 -3.67 1.512 
3.865 -3.674 1.516 
3.851 -3.657 1.511 
3.855 -3.657 1.513 
3.856 -3.654 1.513 
3.855 -3.649 1.513 
3.856 -3.646 1.514 
3.859 -3.644 1.514 
3.859 -3.639 1.514 
3.865 -3.641 1.517 
3.857 -3.628 1.513 
3.865 -3.631 1.516 
3.854 -3.617 1.511 
3.858 -3.616 1.513 
3.877 -3.628 1.519 
3.874 -3.621 1.518 
3.877 -3.618 1.518 
3.872 -3.61 1.515 
3.878 -3.61 1.517 
3.881 -3.608 1.517 
3.884 -3.605 1.517 
3.896 -3.612 1.521 
3.902 -3.612 1.522 
3.899 -3.604 1.519 
3.904 -3.604 1.52 
3.917 -3.61 1.524 
3.907 -3.595 1.519 
3.927 -3.608 1.525 
3.927 -3.602 1.523 
3.929 -3.599 1.522 
3.932 -3.596 1.521 
3.939 -3.598 1.522 
3.938 -3.591 1.52 
3.95 -3.596 1.522 
3.962 -3.6 1.525 
3.967 -3.6 1.525 
3.98 -3.605 1.527 
3.994 -3.612 1.53 
3.993 -3.604 1.527 
3.986 -3.593 1.523 
4.006 -3.605 1.528 
4.01 -3.602 1.526 
4.011 -3.597 1.524 
4.017 -3.596 1.523 
4.04 -3.61 1.529 
4.054 -3.616 1.532 
4.068 -3.622 1.534 
4.084 -3.628 1.536 
4.085 -3.624 1.533 
4.103 -3.632 1.536 
4.109 -3.631 1.535 
4.127 -3.64 1.54 
4.136 -3.642 1.54 
4.153 -3.649 1.542 
4.163 -3.651 1.542 
4.17 -3.651 1.541 
4.183 -3.656 1.542 
4.195 -3.659 1.542 
4.212 -3.666 1.544 
4.225 -3.67 1.545 
4.236 -3.674 1.545 
4.257 -3.684 1.548 
4.269 -3.687 1.547 
4.294 -3.7 1.552 
4.298 -3.697 1.549 
4.308 -3.699 1.548 
4.322 -3.704 1.548 
4.352 -3.721 1.555 
4.38 -3.738 1.56 
4.393 -3.741 1.559 
4.402 -3.742 1.557 
4.425 -3.752 1.56 
4.445 -3.761 1.562 
4.453 -3.761 1.559 
4.473 -3.77 1.561 
4.495 -3.781 1.563 
4.514 -3.789 1.563 
4.535 -3.799 1.565 
4.551 -3.803 1.564 
4.572 -3.813 1.566 
4.586 -3.816 1.565 
4.61 -3.828 1.567 
4.629 -3.836 1.567 
4.659 -3.852 1.571 
4.684 -3.864 1.573 
4.704 -3.872 1.572 
4.743 -3.895 1.579 
4.758 -3.901 1.578 
4.789 -3.917 1.581 
4.815 -3.93 1.583 
4.84 -3.94 1.583 
4.868 -3.955 1.585 
4.9 -3.972 1.589 
4.935 -3.991 1.592 
4.978 -4.015 1.599 
5 -4.024 1.598 
5.022 -4.033 1.598 
5.07 -4.063 1.605 
5.097 -4.076 1.605 
5.124 -4.087 1.607 
5.153 -4.101 1.607 
5.194 -4.125 1.611 
5.221 -4.136 1.611 
5.258 -4.156 1.614 
5.295 -4.176 1.616 
5.329 -4.193 1.619 
5.366 -4.213 1.621 
5.403 -4.232 1.622 
5.448 -4.257 1.627 
5.485 -4.276 1.628 
5.547 -4.314 1.638 
5.591 -4.339 1.641 
5.62 -4.351 1.64 
5.67 -4.379 1.644 
5.715 -4.404 1.648 
5.755 -4.424 1.649 
5.806 -4.453 1.653 
5.859 -4.482 1.658 
5.905 -4.507 1.66 
5.956 -4.535 1.663 
6.013 -4.568 1.668 
6.073 -4.603 1.674 
6.14 -4.642 1.681 
6.188 -4.667 1.682 
6.247 -4.701 1.687 
6.313 -4.74 1.693 
6.373 -4.772 1.697 
6.45 -4.819 1.706 
6.517 -4.858 1.711 
6.572 -4.887 1.713 
6.588 -4.888 1.705 
6.627 -4.906 1.702 
6.615 -4.886 1.687 
6.637 -4.892 1.679 
6.655 -4.894 1.67 
6.642 -4.874 1.654 
6.654 -4.872 1.644 
6.669 -4.872 1.635 
6.671 -4.863 1.622 
6.681 -4.86 1.612 
6.677 -4.846 1.597 
6.686 -4.843 1.586 
6.706 -4.846 1.577 
6.713 -4.841 1.565 
6.723 -4.838 1.554 
6.729 -4.831 1.541 
6.734 -4.825 1.529 
6.743 -4.821 1.517 
6.753 -4.817 1.505 
6.764 -4.814 1.494 
6.761 -4.801 1.479 
6.774 -4.8 1.468 
6.783 -4.796 1.455 
6.781 -4.785 1.441 
6.804 -4.79 1.431 
6.815 -4.787 1.419 
6.822 -4.782 1.406 
6.816 -4.768 1.391 
6.826 -4.765 1.378 
6.838 -4.763 1.366 
6.833 -4.749 1.35 
6.851 -4.751 1.339 
6.854 -4.743 1.324 
6.858 -4.736 1.31 
6.872 -4.735 1.297 
6.883 -4.733 1.285 
6.892 -4.729 1.272 
6.903 -4.726 1.26 
6.91 -4.721 1.245 
6.909 -4.71 1.229 
6.925 -4.711 1.217 
6.915 -4.696 1.2 
6.935 -4.698 1.188 
6.943 -4.694 1.174 
6.944 -4.684 1.159 
6.96 -4.685 1.146 
6.962 -4.677 1.131 
6.963 -4.669 1.116 
6.938 -4.643 1.096 
6.86 -4.583 1.069 
6.761 -4.508 1.038 
6.762 -4.5 1.023 
6.772 -4.497 1.008 
6.793 -4.501 0.997 
6.834 -4.519 0.988 
6.88 -4.539 0.978 
6.848 -4.511 0.959 
6.803 -4.473 0.938 
6.803 -4.463 0.922 
6.818 -4.464 0.909 
6.834 -4.465 0.895 
6.831 -4.454 0.879 
6.842 -4.452 0.865 
6.839 -4.443 0.849 
6.857 -4.445 0.836 
6.86 -4.437 0.82 
6.883 -4.444 0.807 
6.875 -4.43 0.791 
6.891 -4.433 0.777 
6.89 -4.423 0.761 
6.9 -4.42 0.746 
6.877 -4.397 0.727 
6.826 -4.358 0.706 
6.737 -4.293 0.682 
6.715 -4.271 0.664 
6.725 -4.271 0.65 
6.737 -4.269 0.635 
6.752 -4.271 0.621 
6.759 -4.267 0.606 
6.768 -4.264 0.591 
6.76 -4.252 0.574 
6.779 -4.255 0.56 
6.775 -4.245 0.544 
6.796 -4.251 0.53 
6.806 -4.248 0.515 
6.816 -4.247 0.499 
6.816 -4.239 0.484 
6.83 -4.24 0.469 
6.858 -4.249 0.455 
6.869 -4.249 0.439 
6.885 -4.251 0.424 
6.897 -4.25 0.409 
6.894 -4.241 0.392 
6.915 -4.246 0.377 
6.926 -4.245 0.362 
6.912 -4.23 0.345 
6.919 -4.226 0.329 
6.938 -4.23 0.314 
6.931 -4.219 0.297 
6.94 -4.217 0.281 
6.957 -4.22 0.266 
6.952 -4.209 0.249 
6.967 -4.212 0.233 
6.963 -4.202 0.217 
6.981 -4.205 0.201 
6.976 -4.195 0.184 
6.984 -4.193 0.168 
6.99 -4.19 0.152 
7 -4.188 0.136 
7.001 -4.182 0.12 
6.998 -4.175 0.103 
7.006 -4.173 0.087 
7.02 -4.174 0.071 
7.014 -4.164 0.054 
7.032 -4.168 0.039 
7.045 -4.169 0.022 
7.043 -4.161 0.006 
7.058 -4.164 -0.01 
7.06 -4.158 -0.026 
7.053 -4.148 -0.042 
7.069 -4.151 -0.059 
7.058 -4.139 -0.075 
7.072 -4.14 -0.092 
7.077 -4.137 -0.109 
7.069 -4.128 -0.125 
7.082 -4.128 -0.141 
7.094 -4.129 -0.158 
-0.03 -0.088 0 
5.93 -3.459 -0.16 
5.913 -3.446 -0.173 
5.901 -3.433 -0.186 
5.924 -3.441 -0.201 
5.923 -3.437 -0.214 
5.93 -3.436 -0.228 
5.928 -3.43 -0.242 
5.935 -3.429 -0.256 
5.928 -3.421 -0.269 
-0.03 -0.088 0 
4.81 -2.788 -0.24 
4.871 -2.819 -0.255 
4.801 -2.775 -0.262 
4.821 -2.784 -0.274 
4.843 -2.793 -0.286 
5.279 -3.031 -0.324 
5.283 -3.029 -0.337 
5.393 -3.087 -0.355 
5.322 -3.043 -0.364 
5.271 -3.012 -0.371 
5.317 -3.033 -0.387 
5.348 -3.048 -0.402 
5.248 -2.988 -0.405 
5.205 -2.962 -0.413 
5.267 -2.992 -0.431 
5.233 -2.97 -0.439 
5.079 -2.883 -0.438 
4.855 -2.757 -0.429 
4.819 -2.735 -0.438 
4.865 -2.756 -0.452 
4.876 -2.76 -0.464 
4.877 -2.758 -0.475 
4.871 -2.752 -0.485 
4.888 -2.758 -0.498 
4.871 -2.746 -0.508 
4.904 -2.762 -0.521 
4.901 -2.756 -0.532 
4.85 -2.726 -0.538 
4.766 -2.678 -0.538 
4.73 -2.657 -0.544 
4.714 -2.646 -0.553 
4.704 -2.637 -0.563 
4.696 -2.632 -0.572 
4.685 -2.624 -0.581 
4.658 -2.607 -0.588 
4.632 -2.591 -0.594 
4.633 -2.59 -0.605 
4.639 -2.59 -0.616 
4.736 -2.64 -0.638 
4.785 -2.663 -0.655 
4.847 -2.696 -0.675 
4.917 -2.731 -0.694 
4.918 -2.729 -0.705 
4.909 -2.722 -0.715 
4.919 -2.725 -0.727 
4.945 -2.737 -0.74 
4.929 -2.727 -0.748 
4.929 -2.725 -0.758 
4.935 -2.726 -0.77 
4.932 -2.724 -0.78 
4.945 -2.729 -0.792 
4.929 -2.719 -0.801 
4.95 -2.728 -0.814 
4.936 -2.719 -0.822 
4.955 -2.728 -0.835 
4.931 -2.713 -0.842 
4.936 -2.715 -0.853 
4.97 -2.731 -0.868 
4.946 -2.717 -0.874 
4.941 -2.713 -0.884 
4.958 -2.72 -0.896 
4.951 -2.716 -0.905 
4.932 -2.705 -0.912 
4.936 -2.706 -0.923 
4.965 -2.72 -0.938 
4.922 -2.697 -0.94 
4.946 -2.708 -0.955 
4.948 -2.708 -0.965 
4.96 -2.713 -0.976 
4.956 -2.71 -0.986 
4.987 -2.726 -1.002 
4.975 -2.719 -1.008 
4.95 -2.705 -1.014 
4.955 -2.706 -1.025 
4.966 -2.712 -1.035 
4.985 -2.722 -1.049 
4.953 -2.703 -1.053 
4.964 -2.708 -1.064 
4.967 -2.71 -1.074 
4.972 -2.712 -1.085 
4.985 -2.718 -1.097 
4.96 -2.705 -1.102 
4.978 -2.714 -1.114 
4.955 -2.701 -1.119 
4.955 -2.701 -1.128 
4.986 -2.718 -1.144 
4.986 -2.718 -1.153 
5.003 -2.726 -1.166 
4.993 -2.72 -1.173 
4.984 -2.716 -1.18 
4.99 -2.719 -1.191 
4.991 -2.72 -1.2 
4.981 -2.714 -1.206 
4.966 -2.707 -1.213 
4.98 -2.715 -1.224 
4.953 -2.7 -1.227 
4.933 -2.69 -1.231 
4.923 -2.684 -1.237 
4.927 -2.687 -1.246 
4.924 -2.686 -1.254 
4.911 -2.68 -1.26 
4.922 -2.686 -1.271 
4.924 -2.688 -1.28 
4.91 -2.681 -1.284 
4.925 -2.689 -1.297 
4.916 -2.686 -1.303 
4.93 -2.694 -1.315 
4.93 -2.694 -1.323 
4.903 -2.681 -1.324 
4.914 -2.687 -1.335 
4.874 -2.666 -1.332 
4.855 -2.658 -1.335 
4.833 -2.646 -1.336 
4.813 -2.637 -1.339 
4.786 -2.624 -1.339 
4.77 -2.616 -1.343 
4.752 -2.608 -1.345 
4.73 -2.598 -1.346 
4.709 -2.587 -1.348 
4.68 -2.573 -1.347 
4.679 -2.574 -1.353 
4.644 -2.557 -1.351 
4.617 -2.544 -1.35 
4.602 -2.537 -1.352 
4.586 -2.53 -1.354 
4.583 -2.53 -1.36 
4.554 -2.515 -1.359 
4.539 -2.509 -1.361 
4.518 -2.499 -1.361 
4.501 -2.492 -1.363 
4.485 -2.485 -1.364 
4.466 -2.477 -1.365 
4.454 -2.471 -1.367 
4.436 -2.463 -1.368 
4.419 -2.455 -1.369 
4.407 -2.451 -1.371 
4.393 -2.445 -1.373 
4.37 -2.434 -1.373 
4.367 -2.434 -1.377 
4.343 -2.424 -1.376 
4.344 -2.425 -1.382 
4.313 -2.412 -1.378 
4.311 -2.411 -1.383 
4.296 -2.405 -1.383 
4.283 -2.4 -1.384 
4.26 -2.389 -1.382 
4.251 -2.386 -1.384 
4.237 -2.381 -1.385 
4.218 -2.373 -1.384 
4.211 -2.371 -1.387 
4.201 -2.367 -1.389 
4.189 -2.363 -1.39 
4.174 -2.357 -1.39 
4.159 -2.351 -1.39 
4.142 -2.344 -1.389 
4.15 -2.35 -1.397 
4.132 -2.343 -1.395 
4.11 -2.333 -1.392 
4.097 -2.327 -1.392 
4.08 -2.32 -1.391 
4.076 -2.32 -1.394 
4.072 -2.32 -1.397 
4.064 -2.318 -1.398 
4.047 -2.312 -1.397 
4.045 -2.313 -1.4 
4.034 -2.309 -1.4 
4.024 -2.306 -1.401 
4.008 -2.299 -1.399 
4.006 -2.3 -1.402 
3.989 -2.294 -1.4 
3.988 -2.296 -1.403 
3.986 -2.297 -1.406 
3.98 -2.296 -1.408 
3.959 -2.286 -1.404 
3.964 -2.291 -1.408 
3.946 -2.284 -1.406 
3.94 -2.283 -1.407 
3.943 -2.287 -1.411 
3.928 -2.281 -1.409 
3.924 -2.281 -1.411 
3.918 -2.281 -1.412 
3.903 -2.274 -1.41 
3.9 -2.275 -1.412 
3.9 -2.279 -1.415 
3.89 -2.276 -1.414 
3.889 -2.277 -1.416 
3.873 -2.27 -1.413 
3.867 -2.27 -1.414 
3.875 -2.277 -1.419 
3.857 -2.269 -1.415 
3.855 -2.271 -1.417 
3.855 -2.274 -1.419 
3.848 -2.272 -1.418 
3.84 -2.27 -1.418 
3.837 -2.272 -1.419 
3.844 -2.278 -1.424 
3.826 -2.27 -1.419 
3.819 -2.269 -1.419 
3.815 -2.269 -1.419 
3.815 -2.272 -1.421 
3.824 -2.281 -1.426 
3.804 -2.271 -1.42 
3.805 -2.274 -1.422 
3.796 -2.272 -1.42 
3.796 -2.274 -1.422 
3.793 -2.274 -1.422 
3.794 -2.278 -1.424 
3.78 -2.273 -1.42 
3.782 -2.276 -1.422 
3.781 -2.279 -1.423 
3.785 -2.283 -1.425 
3.78 -2.283 -1.425 
3.78 -2.286 -1.426 
3.787 -2.292 -1.429 
3.771 -2.286 -1.424 
3.772 -2.29 -1.425 
3.774 -2.293 -1.427 
3.775 -2.297 -1.428 
3.775 -2.299 -1.429 
3.776 -2.303 -1.43 
3.769 -2.302 -1.428 
3.768 -2.304 -1.428 
3.766 -2.306 -1.427 
3.769 -2.31 -1.429 
3.774 -2.316 -1.431 
3.761 -2.311 -1.426 
3.753 -2.309 -1.423 
3.773 -2.324 -1.431 
3.771 -2.325 -1.43 
3.769 -2.327 -1.429 
3.772 -2.331 -1.43 
3.773 -2.335 -1.43 
3.766 -2.333 -1.428 
3.774 -2.341 -1.43 
3.78 -2.347 -1.431 
3.772 -2.345 -1.429 
3.766 -2.344 -1.426 
3.77 -2.35 -1.426 
3.779 -2.358 -1.429 
3.775 -2.359 -1.427 
3.778 -2.362 -1.427 
3.783 -2.369 -1.428 
3.791 -2.376 -1.43 
3.778 -2.37 -1.424 
3.795 -2.383 -1.429 
3.796 -2.387 -1.429 
3.795 -2.389 -1.427 
3.804 -2.398 -1.429 
3.802 -2.399 -1.427 
3.807 -2.404 -1.427 
3.819 -2.414 -1.43 
3.819 -2.418 -1.429 
3.826 -2.424 -1.43 
3.829 -2.43 -1.43 
3.827 -2.431 -1.427 
3.828 -2.433 -1.426 
3.839 -2.443 -1.428 
3.841 -2.447 -1.427 
3.849 -2.454 -1.428 
3.853 -2.459 -1.427 
3.856 -2.464 -1.426 
3.862 -2.47 -1.426 
3.862 -2.472 -1.423 
3.877 -2.484 -1.426 
3.89 -2.495 -1.428 
3.897 -2.501 -1.428 
3.893 -2.501 -1.424 
3.892 -2.505 -1.421 
3.901 -2.512 -1.422 
3.921 -2.527 -1.426 
3.927 -2.532 -1.426 
3.927 -2.536 -1.423 
3.93 -2.54 -1.421 
3.918 -2.534 -1.413 
3.938 -2.549 -1.417 
3.907 -2.532 -1.403 
3.885 -2.521 -1.392 
3.031 -1.992 -1.085 
3.031 -1.994 -1.082 
3.024 -1.991 -1.077 
3.014 -1.987 -1.071 
3.013 -1.988 -1.068 
3.01 -1.988 -1.064 
3.014 -1.991 -1.062 
3.006 -1.989 -1.057 
2.987 -1.978 -1.048 
2.972 -1.971 -1.039 
-0.03 -0.088 0 
2.924 -1.943 -1.016 
2.971 -1.975 -1.03 
2.971 -1.976 -1.027 
2.929 -1.951 -1.008 
2.933 -1.956 -1.007 
2.936 -1.958 -1.003 
2.896 -1.934 -0.987 
2.909 -1.944 -0.988 
2.922 -1.954 -0.989 
2.947 -1.971 -0.995 
2.964 -1.983 -0.997 
2.94 -1.97 -0.985 
2.906 -1.949 -0.97 
2.943 -1.975 -0.979 
2.895 -1.945 -0.959 
2.92 -1.961 -0.963 
2.909 -1.957 -0.956 
2.899 -1.951 -0.949 
2.899 -1.952 -0.945 
2.892 -1.949 -0.939 
2.949 -1.986 -0.953 
2.9 -1.957 -0.933 
2.88 -1.944 -0.923 
2.852 -1.928 -0.91 
2.789 -1.889 -0.886 
2.749 -1.864 -0.87 
2.739 -1.858 -0.863 
2.738 -1.859 -0.858 
2.743 -1.863 -0.856 
2.75 -1.868 -0.854 
2.752 -1.87 -0.85 
2.759 -1.876 -0.848 
2.77 -1.884 -0.847 
2.779 -1.89 -0.846 
2.797 -1.903 -0.846 
2.808 -1.91 -0.845 
2.83 -1.925 -0.847 
2.885 -1.961 -0.859 
2.857 -1.943 -0.846 
2.897 -1.97 -0.853 
2.927 -1.99 -0.857 
2.947 -2.004 -0.857 
2.956 -2.01 -0.855 
2.956 -2.01 -0.85 
2.955 -2.01 -0.844 
2.96 -2.014 -0.84 
2.96 -2.015 -0.835 
2.944 -2.004 -0.825 
2.977 -2.027 -0.829 
2.93 -1.996 -0.812 
2.957 -2.015 -0.813 
2.958 -2.016 -0.808 
2.962 -2.017 -0.804 
2.96 -2.017 -0.798 
2.962 -2.019 -0.793 
2.956 -2.016 -0.786 
2.966 -2.022 -0.783 
2.961 -2.019 -0.776 
2.965 -2.022 -0.772 
2.966 -2.023 -0.767 
2.963 -2.02 -0.76 
2.957 -2.017 -0.753 
2.969 -2.023 -0.75 
2.974 -2.028 -0.746 
2.974 -2.028 -0.74 
2.972 -2.027 -0.734 
2.971 -2.026 -0.727 
2.97 -2.026 -0.721 
2.98 -2.03 -0.718 
2.98 -2.032 -0.712 
2.982 -2.033 -0.706 
2.986 -2.035 -0.701 
2.986 -2.035 -0.695 
2.989 -2.037 -0.69 
2.949 -2.01 -0.674 
2.972 -2.023 -0.674 
2.95 -2.01 -0.663 
2.952 -2.01 -0.657 
2.934 -1.999 -0.648 
2.917 -1.987 -0.638 
2.931 -1.996 -0.635 
2.939 -2 -0.63 
2.965 -2.017 -0.628 
2.931 -1.995 -0.616 
2.939 -2 -0.611 
2.939 -1.999 -0.605 
2.942 -2 -0.598 
2.943 -2 -0.593 
2.984 -2.026 -0.594 
3.055 -2.07 -0.602 
3.027 -2.052 -0.589 
3.037 -2.058 -0.585 
3.047 -2.063 -0.58 
3.048 -2.063 -0.573 
3.053 -2.065 -0.567 
3.052 -2.064 -0.561 
3.056 -2.066 -0.555 
3.057 -2.066 -0.548 
3.031 -2.048 -0.536 
-0.03 -0.088 0 
-0.03 -0.088 0 
4.007 -2.669 -0.68 
4.065 -2.705 -0.681 
4.185 -2.78 -0.691 
4.247 -2.818 -0.692 
4.299 -2.85 -0.69 
4.908 -3.236 -0.777 
4.965 -3.27 -0.774 
5.035 -3.313 -0.774 
5.056 -3.323 -0.765 
5.038 -3.31 -0.751 
5.024 -3.299 -0.737 
5.013 -3.29 -0.724 
5.017 -3.291 -0.713 
5 -3.277 -0.699 
4.985 -3.266 -0.685 
4.996 -3.269 -0.675 
4.997 -3.267 -0.663 
4.978 -3.253 -0.649 
4.984 -3.254 -0.638 
4.985 -3.252 -0.626 
4.973 -3.242 -0.614 
4.969 -3.237 -0.602 
4.96 -3.229 -0.589 
4.953 -3.222 -0.576 
4.942 -3.213 -0.563 
4.914 -3.192 -0.548 
4.907 -3.185 -0.536 
5.126 -3.319 -0.548 
5.233 -3.383 -0.546 
5.387 -3.477 -0.549 
5.394 -3.477 -0.537 
5.386 -3.469 -0.524 
5.386 -3.466 -0.51 
5.437 -3.494 -0.503 
5.505 -3.533 -0.496 
5.457 -3.5 -0.479 
5.154 -3.307 -0.44 
5.141 -3.297 -0.427 
5.179 -3.316 -0.418 
5.363 -3.427 -0.42 
5.523 -3.522 -0.419 
5.518 -3.515 -0.405 
5.513 -3.508 -0.392 
5.52 -3.509 -0.379 
5.524 -3.508 -0.366 
5.506 -3.493 -0.351 
5.472 -3.468 -0.336 
5.466 -3.459 -0.322 
5.546 -3.505 -0.314 
5.623 -3.548 -0.304 
5.658 -3.566 -0.293 
5.659 -3.561 -0.279 
5.637 -3.543 -0.264 
5.63 -3.534 -0.25 
5.637 -3.535 -0.237 
5.631 -3.527 -0.223 
5.651 -3.535 -0.211 
5.687 -3.551 -0.199 
5.691 -3.549 -0.185 
5.733 -3.57 -0.173 
5.741 -3.569 -0.159 
6.196 -3.839 -0.157 
6.852 -4.229 -0.157 
6.844 -4.218 -0.14 
6.85 -4.216 -0.124 
6.85 -4.21 -0.107 
6.846 -4.202 -0.092 
6.854 -4.201 -0.075 
6.866 -4.202 -0.058 
6.899 -4.216 -0.042 
6.935 -4.231 -0.026 
6.951 -4.234 -0.009 
6.948 -4.226 0.006 
6.946 -4.218 0.022 
6.958 -4.219 0.039 
6.969 -4.219 0.055 
6.979 -4.219 0.071 
6.971 -4.208 0.087 
6.984 -4.21 0.104 
6.979 -4.2 0.12 
6.992 -4.2 0.137 
6.983 -4.188 0.153 
6.993 -4.188 0.17 
6.995 -4.182 0.186 
7.008 -4.183 0.203 
7.008 -4.175 0.219 
7.013 -4.173 0.236 
7.027 -4.174 0.252 
7.021 -4.163 0.269 
7.035 -4.165 0.286 
7.024 -4.151 0.302 
7.049 -4.158 0.319 
7.053 -4.153 0.335 
7.059 -4.149 0.352 
7.06 -4.143 0.368 
7.065 -4.138 0.385 
7.057 -4.127 0.4 
7.07 -4.127 0.417 
7.074 -4.123 0.434 
7.093 -4.126 0.451 
7.101 -4.123 0.467 
7.093 -4.112 0.483 
7.092 -4.103 0.499 
7.114 -4.108 0.516 
7.107 -4.096 0.532 
7.118 -4.094 0.548 
7.122 -4.089 0.564 
7.134 -4.087 0.581 
7.131 -4.08 0.597 
7.131 -4.071 0.612 
7.145 -4.071 0.63 
7.143 -4.061 0.644 
7.157 -4.061 0.662 
7.162 -4.056 0.677 
7.162 -4.05 0.692 
7.175 -4.047 0.709 
7.18 -4.041 0.726 
7.18 -4.034 0.741 
7.204 -4.04 0.76 
7.209 -4.034 0.775 
7.207 -4.026 0.79 
7.211 -4.019 0.806 
7.215 -4.014 0.822 
7.241 -4.019 0.84 
7.241 -4.011 0.855 
7.232 -3.998 0.869 
7.235 -3.992 0.885 
7.251 -3.992 0.902 
7.248 -3.981 0.917 
7.265 -3.982 0.933 
7.267 -3.975 0.949 
7.283 -3.975 0.966 
7.279 -3.964 0.98 
7.292 -3.963 0.996 
7.299 -3.957 1.011 
7.308 -3.954 1.028 
7.295 -3.938 1.04 
7.326 -3.946 1.059 
7.319 -3.934 1.073 
7.322 -3.926 1.088 
7.33 -3.922 1.103 
7.342 -3.92 1.119 
7.352 -3.916 1.135 
7.353 -3.908 1.15 
7.351 -3.897 1.164 
7.369 -3.899 1.181 
7.436 -3.924 1.206 
7.52 -3.958 1.234 
7.801 -4.093 1.294 
7.816 -4.091 1.311 
7.822 -4.083 1.327 
7.836 -4.08 1.344 
7.83 -4.067 1.358 
7.846 -4.067 1.375 
7.853 -4.061 1.391 
7.859 -4.054 1.406 
7.856 -4.044 1.42 
7.878 -4.044 1.438 
7.881 -4.037 1.453 
7.878 -4.026 1.466 
7.886 -4.021 1.481 
7.906 -4.02 1.499 
7.91 -4.012 1.514 
7.923 -4.008 1.53 
7.921 -3.999 1.543 
7.933 -3.994 1.559 
7.932 -3.984 1.572 
7.953 -3.985 1.59 
7.959 -3.977 1.604 
7.962 -3.969 1.618 
7.956 -3.956 1.63 
7.985 -3.96 1.649 
7.982 -3.949 1.662 
7.994 -3.945 1.677 
7.995 -3.935 1.69 
7.995 -3.925 1.703 
8.017 -3.927 1.721 
8.023 -3.919 1.735 
8.029 -3.912 1.749 
8.043 -3.908 1.764 
8.049 -3.901 1.777 
8.05 -3.892 1.79 
8.064 -3.888 1.806 
8.068 -3.88 1.819 
8.081 -3.876 1.834 
8.093 -3.871 1.848 
8.112 -3.869 1.864 
8.104 -3.856 1.875 
8.108 -3.847 1.887 
8.071 -3.821 1.891 
8.031 -3.791 1.892 
7.966 -3.753 1.888 
7.895 -3.71 1.881 
7.836 -3.673 1.879 
7.782 -3.638 1.877 
7.723 -3.603 1.872 
7.675 -3.571 1.871 
7.615 -3.534 1.867 
7.553 -3.497 1.861 
7.501 -3.465 1.858 
7.45 -3.432 1.855 
7.403 -3.402 1.853 
7.345 -3.368 1.848 
7.293 -3.336 1.844 
7.251 -3.308 1.843 
7.205 -3.279 1.839 
7.166 -3.252 1.838 
7.126 -3.226 1.837 
7.079 -3.197 1.833 
7.032 -3.168 1.829 
7.016 -3.152 1.833 
6.977 -3.126 1.831 
6.891 -3.081 1.816 
6.849 -3.054 1.812 
6.828 -3.037 1.814 
6.801 -3.017 1.815 
6.753 -2.988 1.809 
6.723 -2.968 1.808 
6.684 -2.942 1.805 
6.658 -2.924 1.805 
6.63 -2.903 1.804 
6.6 -2.883 1.803 
6.563 -2.859 1.798 
6.517 -2.832 1.792 
6.494 -2.815 1.792 
6.472 -2.799 1.793 
6.425 -2.77 1.786 
6.398 -2.752 1.783 
6.394 -2.742 1.788 
6.36 -2.721 1.785 
6.339 -2.705 1.785 
6.299 -2.682 1.779 
6.281 -2.666 1.779 
6.271 -2.655 1.782 
6.237 -2.635 1.777 
6.207 -2.615 1.773 
6.198 -2.604 1.776 
6.169 -2.586 1.773 
6.146 -2.569 1.771 
6.127 -2.555 1.77 
6.119 -2.544 1.772 
6.099 -2.529 1.77 
6.081 -2.515 1.769 
6.061 -2.501 1.768 
6.026 -2.48 1.762 
6.018 -2.47 1.764 
6.001 -2.457 1.763 
5.985 -2.444 1.762 
5.953 -2.425 1.757 
5.953 -2.418 1.759 
5.94 -2.407 1.759 
5.918 -2.392 1.757 
5.909 -2.382 1.757 
5.888 -2.367 1.754 
5.888 -2.361 1.757 
5.86 -2.344 1.752 
5.846 -2.333 1.751 
5.847 -2.326 1.754 
5.835 -2.316 1.754 
5.816 -2.303 1.75 
5.824 -2.299 1.755 
5.799 -2.284 1.75 
5.801 -2.28 1.754 
5.785 -2.267 1.751 
5.78 -2.26 1.752 
5.766 -2.248 1.75 
5.754 -2.238 1.749 
5.765 -2.236 1.754 
5.739 -2.221 1.749 
5.733 -2.213 1.749 
5.741 -2.211 1.753 
5.723 -2.198 1.749 
5.718 -2.191 1.75 
5.715 -2.185 1.751 
5.715 -2.179 1.752 
5.713 -2.173 1.753 
5.703 -2.164 1.75 
5.703 -2.158 1.751 
5.689 -2.148 1.748 
5.694 -2.144 1.751 
5.686 -2.136 1.75 
5.688 -2.132 1.752 
5.696 -2.13 1.755 
5.7 -2.126 1.757 
5.688 -2.116 1.754 
5.676 -2.107 1.751 
5.69 -2.107 1.756 
5.691 -2.103 1.757 
5.679 -2.094 1.754 
5.689 -2.093 1.757 
5.692 -2.088 1.758 
5.671 -2.076 1.752 
5.681 -2.075 1.755 
5.678 -2.069 1.755 
5.68 -2.066 1.755 
5.672 -2.059 1.753 
5.679 -2.056 1.755 
5.682 -2.053 1.756 
5.68 -2.046 1.755 
5.694 -2.048 1.759 
5.69 -2.042 1.757 
5.682 -2.036 1.755 
5.697 -2.036 1.758 
5.696 -2.032 1.758 
5.693 -2.027 1.756 
5.702 -2.025 1.758 
5.716 -2.026 1.761 
5.71 -2.02 1.759 
5.714 -2.017 1.759 
5.723 -2.016 1.76 
5.73 -2.015 1.761 
5.742 -2.016 1.764 
5.739 -2.01 1.762 
5.76 -2.014 1.767 
5.761 -2.01 1.766 
5.784 -2.015 1.771 
5.775 -2.007 1.767 
5.79 -2.01 1.77 
5.792 -2.007 1.769 
5.8 -2.006 1.769 
5.817 -2.009 1.773 
5.831 -2.01 1.775 
5.841 -2.01 1.776 
5.847 -2.009 1.776 
5.86 -2.01 1.778 
5.863 -2.007 1.776 
5.882 -2.01 1.78 
5.892 -2.01 1.78 
5.891 -2.007 1.778 
5.914 -2.012 1.782 
5.913 -2.01 1.779 
5.946 -2.017 1.786 
5.944 -2.014 1.784 
5.967 -2.017 1.787 
5.954 -2.012 1.781 
5.989 -2.02 1.788 
5.994 -2.02 1.787 
6.006 -2.02 1.788 
6.027 -2.026 1.792 
6.031 -2.025 1.79 
6.042 -2.026 1.79 
6.071 -2.032 1.794 
6.079 -2.033 1.794 
6.091 -2.035 1.794 
6.108 -2.038 1.795 
6.128 -2.043 1.798 
6.149 -2.048 1.8 
6.161 -2.049 1.8 
6.187 -2.056 1.803 
6.201 -2.06 1.804 
6.207 -2.059 1.801 
6.231 -2.065 1.804 
6.258 -2.073 1.808 
6.272 -2.075 1.808 
6.301 -2.083 1.813 
6.308 -2.085 1.811 
6.335 -2.092 1.814 
6.357 -2.098 1.816 
6.374 -2.102 1.816 
6.392 -2.107 1.817 
6.419 -2.114 1.82 
6.448 -2.123 1.823 
6.473 -2.129 1.825 
6.501 -2.138 1.828 
6.525 -2.145 1.83 
6.553 -2.153 1.834 
6.573 -2.158 1.834 
6.607 -2.169 1.839 
6.628 -2.175 1.839 
6.668 -2.187 1.845 
6.687 -2.193 1.844 
6.717 -2.202 1.847 
6.751 -2.214 1.851 
6.772 -2.22 1.851 
6.809 -2.232 1.856 
6.828 -2.238 1.856 
6.861 -2.249 1.859 
6.889 -2.258 1.86 
6.914 -2.266 1.861 
6.952 -2.279 1.865 
6.987 -2.29 1.868 
7.007 -2.297 1.867 
7.039 -2.308 1.87 
7.079 -2.322 1.874 
7.12 -2.336 1.879 
7.145 -2.345 1.879 
7.184 -2.359 1.882 
7.218 -2.37 1.884 
7.259 -2.384 1.889 
7.301 -2.399 1.893 
7.349 -2.416 1.898 
7.378 -2.427 1.899 
7.417 -2.441 1.902 
7.453 -2.454 1.903 
7.489 -2.468 1.906 
7.542 -2.487 1.912 
7.59 -2.504 1.917 
7.616 -2.515 1.916 
7.665 -2.533 1.92 
7.712 -2.55 1.925 
7.748 -2.564 1.926 
7.79 -2.581 1.928 
7.834 -2.598 1.931 
7.892 -2.619 1.937 
7.96 -2.644 1.946 
7.999 -2.66 1.947 
8.041 -2.677 1.949 
8.107 -2.701 1.956 
8.159 -2.721 1.961 
8.204 -2.74 1.963 
8.252 -2.76 1.966 
8.329 -2.788 1.976 
8.392 -2.813 1.981 
8.442 -2.833 1.984 
8.461 -2.844 1.979 
8.485 -2.857 1.976 
8.5 -2.866 1.97 
8.48 -2.864 1.956 
8.479 -2.868 1.946 
8.472 -2.871 1.935 
8.466 -2.875 1.925 
8.469 -2.881 1.916 
8.456 -2.881 1.904 
8.468 -2.891 1.897 
8.448 -2.89 1.883 
8.46 -2.899 1.876 
8.439 -2.899 1.862 
8.434 -2.903 1.851 
8.437 -2.909 1.842 
8.429 -2.913 1.831 
8.416 -2.915 1.819 
8.425 -2.924 1.812 
8.41 -2.925 1.798 
8.404 -2.929 1.786 
8.402 -2.936 1.778 
8.388 -2.938 1.764 
8.386 -2.944 1.755 
8.387 -2.951 1.745 
8.383 -2.957 1.734 
8.377 -2.962 1.723 
8.37 -2.966 1.712 
8.342 -2.964 1.696 
8.35 -2.974 1.688 
8.357 -2.984 1.679 
8.335 -2.984 1.665 
8.337 -2.992 1.655 
8.319 -2.994 1.642 
8.313 -2.999 1.63 
8.31 -3.007 1.62 
8.309 -3.014 1.61 
8.289 -3.016 1.596 
8.292 -3.024 1.586 
8.277 -3.028 1.573 
8.278 -3.037 1.563 
8.259 -3.039 1.549 
8.257 -3.046 1.539 
8.25 -3.052 1.527 
8.245 -3.06 1.516 
8.221 -3.06 1.502 
8.23 -3.072 1.493 
8.23 -3.082 1.483 
1.393 0.474 -0.351 
1.406 0.476 -0.353 
1.394 0.472 -0.35 
1.394 0.471 -0.35 
1.395 0.47 -0.349 
1.39 0.469 -0.348 
1.401 0.471 -0.35 
1.402 0.47 -0.35 
1.392 0.467 -0.347 
1.402 0.469 -0.349 
1.412 0.47 -0.351 
1.403 0.467 -0.348 
1.401 0.466 -0.347 
1.401 0.465 -0.347 
1.392 0.462 -0.344 
1.414 0.468 -0.349 
1.401 0.463 -0.345 
1.404 0.463 -0.345 
1.402 0.462 -0.344 
1.405 0.463 -0.344 
1.405 0.462 -0.344 
1.409 0.463 -0.344 
1.41 0.462 -0.343 
1.412 0.462 -0.343 
1.413 0.461 -0.343 
1.414 0.462 -0.342 
1.416 0.461 -0.342 
1.419 0.461 -0.342 
1.425 0.462 -0.343 
1.419 0.461 -0.341 
1.418 0.461 -0.339 
1.422 0.461 -0.34 
1.414 0.459 -0.337 
1.419 0.459 -0.337 
1.419 0.459 -0.337 
1.427 0.46 -0.338 
1.421 0.459 -0.336 
1.421 0.458 -0.335 
1.426 0.46 -0.335 
1.426 0.46 -0.334 
1.435 0.461 -0.335 
1.432 0.461 -0.334 
1.429 0.459 -0.332 
1.442 0.462 -0.334 
1.436 0.461 -0.332 
1.436 0.461 -0.331 
1.432 0.46 -0.329 
1.434 0.46 -0.329 
1.435 0.46 -0.328 
1.435 0.46 -0.327 
1.434 0.46 -0.326 
1.429 0.458 -0.323 
1.437 0.46 -0.325 
1.435 0.459 -0.323 
1.438 0.461 -0.323 
1.441 0.462 -0.322 
1.44 0.461 -0.321 
1.44 0.461 -0.32 
1.43 0.459 -0.317 
1.439 0.461 -0.318 
1.432 0.46 -0.315 
1.431 0.459 -0.314 
1.434 0.46 -0.313 
1.435 0.46 -0.312 
1.431 0.46 -0.311 
1.434 0.461 -0.31 
1.431 0.46 -0.308 
1.435 0.461 -0.308 
1.435 0.461 -0.307 
1.434 0.462 -0.306 
1.434 0.462 -0.304 
1.435 0.463 -0.303 
1.438 0.464 -0.303 
1.434 0.463 -0.301 
1.438 0.464 -0.3 
1.439 0.465 -0.299 
1.423 0.461 -0.295 
-0.03 0.088 0 
-0.03 0.088 0 
-0.03 0.088 0 
-0.03 0.088 0 
-0.03 0.088 0 
-0.03 0.088 0 
-0.03 0.088 0 
-0.03 0.088 0 
-0.03 0.088 0 
-0.03 0.088 0 
2.583 0.771 -0.508 
-0.03 0.088 0 
-0.03 0.088 0 
2.69 0.802 -0.521 
2.625 0.787 -0.505 
2.639 0.791 -0.507 
2.644 0.794 -0.505 
2.638 0.794 -0.501 
2.642 0.797 -0.5 
2.651 0.801 -0.499 
2.645 0.801 -0.496 
2.666 0.807 -0.497 
2.678 0.813 -0.497 
2.678 0.814 -0.495 
2.689 0.819 -0.494 
2.692 0.821 -0.492 
2.704 0.827 -0.492 
2.707 0.828 -0.49 
2.709 0.831 -0.488 
2.715 0.835 -0.486 
2.716 0.837 -0.484 
2.718 0.839 -0.481 
2.717 0.841 -0.479 
2.717 0.843 -0.476 
2.712 0.844 -0.473 
2.709 0.845 -0.47 
2.697 0.844 -0.465 
2.685 0.843 -0.461 
2.692 0.847 -0.459 
2.772 0.871 -0.47 
2.679 0.848 -0.452 
2.719 0.862 -0.456 
2.758 0.875 -0.459 
2.757 0.877 -0.457 
2.723 0.869 -0.448 
2.741 0.878 -0.448 
2.741 0.88 -0.446 
2.696 0.87 -0.436 
2.711 0.876 -0.436 
2.716 0.881 -0.434 
2.723 0.886 -0.432 
2.74 0.893 -0.432 
2.79 0.911 -0.437 
2.788 0.913 -0.434 
2.814 0.923 -0.436 
2.822 0.929 -0.434 
2.836 0.936 -0.434 
2.854 0.944 -0.434 
2.874 0.953 -0.434 
2.873 0.956 -0.431 
2.831 0.947 -0.422 
2.779 0.934 -0.41 
2.754 0.93 -0.404 
2.736 0.928 -0.399 
2.719 0.926 -0.394 
2.713 0.927 -0.39 
2.712 0.93 -0.387 
2.711 0.933 -0.384 
2.714 0.937 -0.382 
2.709 0.939 -0.379 
2.705 0.941 -0.375 
2.71 0.946 -0.373 
2.708 0.95 -0.37 
2.711 0.954 -0.368 
2.71 0.956 -0.365 
2.707 0.959 -0.362 
2.71 0.964 -0.36 
2.703 0.965 -0.356 
2.695 0.966 -0.352 
2.69 0.968 -0.349 
2.691 0.972 -0.346 
2.69 0.976 -0.343 
2.682 0.977 -0.34 
2.654 0.971 -0.333 
2.564 0.946 -0.32 
2.561 0.948 -0.317 
2.561 0.953 -0.314 
2.56 0.956 -0.312 
2.557 0.959 -0.309 
2.555 0.962 -0.306 
2.555 0.965 -0.303 
2.55 0.968 -0.3 
2.548 0.971 -0.298 
2.547 0.975 -0.295 
2.545 0.978 -0.292 
2.543 0.981 -0.289 
2.544 0.986 -0.287 
2.541 0.988 -0.283 
2.535 0.99 -0.279 
2.533 0.994 -0.277 
2.532 0.998 -0.274 
2.53 1.002 -0.271 
2.527 1.005 -0.268 
2.52 1.006 -0.265 
2.52 1.011 -0.263 
2.518 1.014 -0.26 
2.516 1.016 -0.257 
2.513 1.02 -0.254 
2.505 1.021 -0.25 
2.503 1.025 -0.248 
2.5 1.029 -0.245 
2.497 1.032 -0.243 
2.494 1.035 -0.24 
2.493 1.039 -0.237 
2.493 1.043 -0.235 
2.484 1.046 -0.232 
2.482 1.049 -0.229 
2.482 1.054 -0.226 
2.479 1.057 -0.224 
2.477 1.061 -0.221 
2.475 1.064 -0.218 
2.475 1.069 -0.216 
2.469 1.071 -0.213 
2.467 1.076 -0.21 
2.464 1.079 -0.207 
2.461 1.083 -0.205 
2.463 1.089 -0.203 
2.456 1.091 -0.2 
2.454 1.094 -0.197 
2.449 1.097 -0.194 
2.449 1.103 -0.192 
2.448 1.107 -0.189 
2.446 1.111 -0.187 
2.442 1.114 -0.184 
2.433 1.115 -0.181 
2.431 1.119 -0.178 
2.432 1.125 -0.176 
2.428 1.128 -0.173 
2.423 1.131 -0.171 
2.42 1.135 -0.168 
2.412 1.136 -0.165 
2.41 1.141 -0.163 
2.408 1.146 -0.16 
2.412 1.152 -0.158 
2.404 1.154 -0.155 
2.402 1.159 -0.153 
2.398 1.162 -0.15 
2.398 1.166 -0.148 
2.392 1.17 -0.145 
2.394 1.175 -0.143 
2.388 1.178 -0.141 
2.384 1.182 -0.138 
2.382 1.186 -0.136 
2.379 1.19 -0.133 
2.378 1.195 -0.131 
2.373 1.198 -0.129 
2.37 1.202 -0.126 
2.369 1.207 -0.124 
2.367 1.212 -0.122 
2.364 1.216 -0.119 
2.364 1.221 -0.117 
2.36 1.225 -0.115 
2.35 1.225 -0.112 
2.353 1.233 -0.11 
2.346 1.234 -0.107 
2.337 1.236 -0.105 
2.32 1.233 -0.102 
-0.03 0.088 0 
-0.03 0.088 0 
-0.03 0.088 0 
4.878 2.526 -0.196 
4.956 2.577 -0.194 
4.955 2.588 -0.19 
4.995 2.621 -0.187 
5.013 2.642 -0.183 
5.053 2.675 -0.18 
4.683 2.498 -0.163 
4.694 2.515 -0.159 
4.709 2.535 -0.155 
4.691 2.538 -0.151 
4.691 2.549 -0.147 
4.684 2.557 -0.142 
4.706 2.581 -0.139 
4.658 2.567 -0.133 
4.665 2.582 -0.129 
4.677 2.601 -0.126 
4.659 2.603 -0.121 
4.645 2.608 -0.117 
4.679 2.638 -0.114 
4.681 2.652 -0.11 
4.707 2.678 -0.106 
4.824 2.754 -0.104 
4.801 2.754 -0.1 
4.79 2.761 -0.096 
4.734 2.742 -0.091 
4.791 2.786 -0.088 
5.02 2.928 -0.088 
4.734 2.779 -0.079 
4.809 2.835 -0.076 
4.738 2.807 -0.072 
4.693 2.794 -0.067 
4.719 2.821 -0.064 
4.719 2.833 -0.06 
4.74 2.858 -0.056 
4.627 2.804 -0.052 
4.608 2.805 -0.048 
4.618 2.824 -0.044 
4.717 2.895 -0.041 
4.7 2.898 -0.037 
4.695 2.909 -0.034 
4.702 2.926 -0.03 
4.609 2.882 -0.026 
4.734 2.971 -0.023 
4.634 2.922 -0.019 
4.648 2.944 -0.017 
4.638 2.951 -0.013 
4.687 2.994 -0.01 
4.738 3.04 -0.006 
4.896 3.151 -0.003 
4.992 3.224 0 
4.99 3.237 0.004 
4.418 2.891 0.006 
4.446 2.921 0.01 
4.427 2.921 0.013 
4.422 2.932 0.016 
4.431 2.95 0.019 
4.546 3.037 0.023 
-0.03 0.088 0 
-0.03 0.088 0 
1.887 1.339 0.013 
1.94 1.38 0.015 
2.063 1.466 0.017 
2.298 1.628 0.02 
2.563 1.81 0.025 
-0.03 0.088 0 
-0.03 0.088 0 
-0.03 0.088 0 
-0.03 0.088 0 
-0.03 0.088 0 
-0.03 0.088 0 
2.688 1.949 0.039 
2.681 1.951 0.04 
2.677 1.957 0.042 
2.674 1.962 0.043 
2.669 1.968 0.045 
2.666 1.972 0.046 
2.662 1.979 0.048 
2.658 1.983 0.049 
2.653 1.987 0.051 
2.651 1.994 0.052 
2.645 1.998 0.054 
2.642 2.003 0.055 
2.638 2.007 0.057 
2.633 2.013 0.058 
2.606 2.002 0.059 
2.59 1.997 0.06 
2.587 2.002 0.061 
2.512 1.955 0.061 
2.211 1.74 0.055 
1.996 1.589 0.051 
1.743 1.406 0.045 
1.719 1.393 0.045 
1.704 1.388 0.046 
1.694 1.385 0.046 
1.687 1.385 0.047 
1.671 1.378 0.047 
1.659 1.375 0.048 
1.65 1.372 0.048 
1.624 1.357 0.048 
1.578 1.327 0.047 
1.526 1.291 0.046 
1.506 1.281 0.047 
1.496 1.277 0.048 
1.482 1.27 0.048 
1.46 1.257 0.047 
1.443 1.249 0.047 
1.431 1.244 0.048 
1.414 1.234 0.048 
1.397 1.226 0.047 
1.384 1.22 0.048 
1.354 1.2 0.047 
1.356 1.205 0.047 
1.345 1.2 0.048 
1.336 1.198 0.048 
1.34 1.204 0.048 
1.306 1.181 0.047 
1.305 1.184 0.048 
1.286 1.172 0.047 
1.265 1.159 0.047 
1.206 1.113 0.046 
1.185 1.1 0.045 
1.184 1.103 0.046 
1.204 1.124 0.047 
1.188 1.113 0.046 
1.184 1.113 0.047 
1.181 1.115 0.047 
1.171 1.111 0.047 
1.142 1.089 0.046 
1.138 1.089 0.046 
1.133 1.087 0.046 
1.136 1.094 0.046 
1.138 1.1 0.047 
1.125 1.091 0.046 
1.126 1.096 0.046 
1.107 1.083 0.046 
1.091 1.071 0.045 
1.065 1.051 0.044 
1.039 1.032 0.043 
1.018 1.016 0.042 
1.003 1.007 0.042 
1.002 1.008 0.042 
0.987 0.999 0.042 
0.999 1.011 0.043 
0.988 1.005 0.043 
0.981 1.002 0.042 
0.976 1 0.042 
0.981 1.007 0.043 
0.983 1.013 0.043 
0.973 1.006 0.042 
0.967 1.003 0.042 
0.955 0.995 0.042 
0.948 0.991 0.041 
0.952 0.997 0.041 
0.935 0.985 0.041 
0.946 0.998 0.041 
0.923 0.979 0.04 
0.915 0.973 0.04 
0.899 0.96 0.039 
0.901 0.965 0.039 
0.872 0.941 0.038 
0.865 0.937 0.037 
0.846 0.921 0.036 
0.837 0.915 0.036 
0.836 0.916 0.036 
0.824 0.907 0.035 
0.82 0.906 0.035 
0.803 0.891 0.034 
0.814 0.905 0.034 
0.803 0.896 0.034 
0.795 0.89 0.033 
0.794 0.892 0.033 
0.788 0.887 0.033 
0.776 0.878 0.032 
0.775 0.88 0.032 
0.774 0.88 0.032 
0.777 0.886 0.032 
0.762 0.872 0.031 
0.763 0.875 0.031 
0.759 0.874 0.03 
0.761 0.877 0.03 
0.751 0.87 0.03 
0.758 0.878 0.03 
0.759 0.881 0.03 
0.754 0.878 0.029 
0.753 0.879 0.029 
0.743 0.872 0.028 
0.735 0.865 0.029 
0.734 0.866 0.028 
0.731 0.864 0.028 
0.734 0.869 0.028 
0.731 0.869 0.028 
0.729 0.867 0.027 
0.732 0.872 0.027 
0.711 0.852 0.026 
0.711 0.855 0.026 
0.702 0.846 0.025 
0.703 0.849 0.025 
0.698 0.846 0.024 
0.692 0.841 0.024 
0.683 0.832 0.023 
0.68 0.831 0.023 
0.673 0.824 0.022 
0.674 0.829 0.022 
0.668 0.824 0.021 
0.666 0.823 0.021 
0.657 0.814 0.02 
-0.03 0.088 0 
-0.03 0.088 0 
-0.03 0.088 0 
-0.03 0.088 0 
-0.03 0.088 0 
-0.03 0.088 0 
-0.03 0.088 0 
-0.03 0.088 0 
-0.03 0.088 0 
-0.03 0.088 0 
-0.03 0.088 0 
-0.03 0.088 0 
-0.03 0.088 0 
-0.03 0.088 0 
-0.03 0.088 0 
-0.03 0.088 0 
-0.03 0.088 0 
-0.03 0.088 0 
-0.03 0.088 0 
-0.03 0.088 0 
-0.03 0.088 0 
-0.03 0.088 0 
-0.03 0.088 0 
-0.03 0.088 0 
-0.03 0.088 0 
-0.03 0.088 0 
-0.03 0.088 0 
-0.03 0.088 0 
-0.03 0.088 0 
-0.03 0.088 0 
-0.03 0.088 0 
-0.03 0.088 0 
-0.03 0.088 0 
-0.03 0.088 0 
-0.03 0.088 0 
-0.03 0.088 0 
-0.03 0.088 0 
-0.03 0.088 0 
-0.03 0.088 0 
-0.03 0.088 0 
-0.03 0.088 0 
-0.03 0.088 0 
-0.03 0.088 0 
-0.03 0.088 0 
-0.03 0.088 0 
-0.03 0.088 0 
-0.03 0.088 0 
-0.03 0.088 0 
-0.03 0.088 0 
-0.03 0.088 0 
-0.03 0.088 0 
-0.03 0.088 0 
-0.03 0.088 0 
-0.03 0.088 0 
-0.03 0.088 0 
-0.03 0.088 0 
