ply
format ascii 1.0
comment Created by CloudCompare v2.11.3 (Anoia)
comment Created 2021/4/5 13:13
obj_info Generated by CloudCompare!
element vertex 1500
property float x
property float y
property float z
property uchar red
property uchar green
property uchar blue
property float scalar_intensity
end_header
3.684 -0.073 1.094 34 255 0 98 
3.676 -0.075 1.088 25 255 0 96 
3.682 -0.076 1.086 0 255 0 90 
3.682 -0.077 1.082 0 255 8 88 
3.682 -0.079 1.078 0 255 42 80 
3.682 -0.08 1.075 0 255 76 72 
3.68 -0.081 1.07 0 255 97 67 
3.682 -0.083 1.067 0 255 114 63 
3.678 -0.084 1.061 0 255 127 60 
3.678 -0.085 1.057 0 255 131 59 
3.681 -0.086 1.054 0 255 131 59 
3.683 -0.088 1.05 0 255 131 59 
3.683 -0.089 1.046 0 255 127 60 
3.684 -0.09 1.042 0 255 127 60 
3.685 -0.091 1.038 0 255 127 60 
3.683 -0.092 1.033 0 255 119 62 
3.684 -0.094 1.029 0 255 119 62 
3.69 -0.095 1.026 0 255 106 65 
3.691 -0.096 1.022 0 255 68 74 
3.696 -0.097 1.019 0 255 21 85 
3.695 -0.098 1.014 17 255 0 94 
3.7 -0.1 1.01 38 255 0 99 
3.694 -0.101 1.004 59 255 0 104 
3.696 -0.102 1 68 255 0 106 
3.697 -0.103 0.995 68 255 0 106 
3.698 -0.104 0.991 68 255 0 106 
3.707 -0.105 0.989 63 255 0 105 
3.701 -0.106 0.982 68 255 0 106 
3.702 -0.107 0.977 68 255 0 106 
3.703 -0.108 0.973 68 255 0 106 
3.704 -0.11 0.968 68 255 0 106 
3.705 -0.111 0.963 59 255 0 104 
3.707 -0.112 0.958 68 255 0 106 
3.707 -0.112 0.953 59 255 0 104 
3.712 -0.114 0.949 85 255 0 110 
3.718 -0.115 0.946 63 255 0 105 
3.711 -0.115 0.939 59 255 0 104 
3.712 -0.116 0.934 59 255 0 104 
3.714 -0.117 0.929 51 255 0 102 
3.718 -0.118 0.924 0 255 8 88 
3.715 -0.119 0.918 0 255 4 89 
3.713 -0.12 0.912 0 255 59 76 
3.712 -0.121 0.906 0 255 63 75 
3.717 -0.122 0.902 0 255 72 73 
3.718 -0.123 0.897 0 255 72 73 
3.719 -0.124 0.891 0 255 72 73 
3.72 -0.124 0.886 0 255 72 73 
3.719 -0.125 0.88 0 255 63 75 
3.719 -0.126 0.874 0 255 68 74 
3.72 -0.127 0.869 0 255 68 74 
3.721 -0.127 0.863 0 255 68 74 
3.724 -0.128 0.858 0 255 63 75 
3.729 -0.129 0.853 0 255 80 71 
3.726 -0.13 0.847 0 255 63 75 
3.727 -0.13 0.841 0 255 63 75 
3.732 -0.131 0.836 0 255 72 73 
3.73 -0.132 0.83 0 255 63 75 
3.731 -0.132 0.824 0 255 63 75 
3.737 -0.133 0.819 0 255 4 89 
3.735 -0.134 0.813 38 255 0 99 
3.743 -0.134 0.808 102 255 0 114 
3.741 -0.135 0.802 85 255 0 110 
3.745 -0.136 0.797 102 255 0 114 
3.744 -0.136 0.79 85 255 0 110 
3.745 -0.136 0.784 85 255 0 110 
3.746 -0.137 0.778 85 255 0 110 
3.748 -0.138 0.772 76 255 0 108 
3.749 -0.138 0.766 123 255 0 119 
3.748 -0.138 0.759 157 255 0 127 
3.742 -0.138 0.751 238 255 0 146 
3.743 -0.139 0.745 238 255 0 146 
3.75 -0.14 0.74 102 255 0 114 
3.753 -0.14 0.734 76 255 0 108 
3.755 -0.14 0.728 68 255 0 106 
3.762 -0.141 0.723 0 255 8 88 
3.751 -0.141 0.714 0 255 29 83 
3.755 -0.141 0.708 0 255 63 75 
3.756 -0.141 0.702 0 255 63 75 
3.757 -0.142 0.695 0 255 63 75 
3.758 -0.142 0.689 0 255 63 75 
3.761 -0.142 0.683 0 255 59 76 
3.761 -0.142 0.676 0 255 63 75 
3.762 -0.142 0.669 0 255 63 75 
3.762 -0.143 0.662 0 255 68 74 
3.766 -0.143 0.656 0 255 68 74 
3.767 -0.143 0.649 0 255 80 71 
3.766 -0.143 0.642 0 255 85 70 
3.771 -0.143 0.636 0 255 80 71 
3.773 -0.143 0.63 0 255 80 71 
3.775 -0.143 0.623 0 255 46 79 
3.782 -0.143 0.617 25 255 0 96 
3.784 -0.143 0.61 93 255 0 112 
3.784 -0.143 0.603 102 255 0 114 
3.783 -0.143 0.596 114 255 0 117 
3.784 -0.143 0.589 93 255 0 112 
3.787 -0.143 0.582 102 255 0 114 
3.788 -0.143 0.575 102 255 0 114 
3.791 -0.143 0.569 102 255 0 114 
3.79 -0.142 0.561 102 255 0 114 
3.793 -0.142 0.554 102 255 0 114 
3.795 -0.142 0.547 102 255 0 114 
3.794 -0.142 0.54 102 255 0 114 
3.795 -0.141 0.533 102 255 0 114 
3.801 -0.141 0.526 0 255 0 90 
8.607 -0.217 0.381 0 136 255 16 
8.732 -0.087 0.397 0 144 255 17 
9.514 -0.095 0.493 0 170 255 20 
3.799 -0.066 0.529 0 255 0 90 
3.791 -0.067 0.535 59 255 0 104 
3.79 -0.068 0.542 76 255 0 108 
3.789 -0.069 0.549 136 255 0 122 
3.79 -0.07 0.557 144 255 0 124 
3.787 -0.071 0.563 136 255 0 122 
3.791 -0.073 0.571 123 255 0 119 
3.787 -0.074 0.578 144 255 0 124 
3.784 -0.075 0.584 136 255 0 122 
3.785 -0.077 0.592 144 255 0 124 
3.784 -0.078 0.599 144 255 0 124 
3.78 -0.079 0.605 136 255 0 122 
3.778 -0.08 0.612 85 255 0 110 
3.777 -0.082 0.619 17 255 0 94 
3.77 -0.083 0.624 0 255 17 86 
3.766 -0.084 0.631 0 255 17 86 
3.774 -0.086 0.639 0 255 4 89 
3.765 -0.087 0.644 0 255 8 88 
3.762 -0.089 0.65 4 255 0 91 
3.76 -0.09 0.657 4 255 0 91 
3.76 -0.092 0.664 0 255 4 89 
3.753 -0.093 0.669 8 255 0 92 
3.755 -0.094 0.676 0 255 4 89 
3.754 -0.096 0.683 0 255 17 86 
3.759 -0.098 0.69 0 255 21 85 
3.748 -0.099 0.695 0 255 17 86 
3.756 -0.101 0.703 0 255 17 86 
3.75 -0.102 0.708 0 255 12 87 
3.754 -0.104 0.716 29 255 0 97 
3.749 -0.105 0.721 63 255 0 105 
3.754 -0.107 0.728 144 255 0 124 
3.756 -0.109 0.735 174 255 0 131 
3.752 -0.111 0.741 157 255 0 127 
3.751 -0.112 0.747 131 255 0 121 
3.75 -0.114 0.753 131 255 0 121 
3.75 -0.116 0.76 123 255 0 119 
3.749 -0.117 0.766 123 255 0 119 
3.748 -0.119 0.772 123 255 0 119 
3.747 -0.121 0.777 123 255 0 119 
3.745 -0.122 0.783 123 255 0 119 
3.745 -0.124 0.789 136 255 0 122 
3.743 -0.126 0.795 123 255 0 119 
3.74 -0.128 0.8 131 255 0 121 
3.741 -0.13 0.807 136 255 0 122 
3.737 -0.131 0.812 76 255 0 108 
3.735 -0.133 0.817 25 255 0 96 
3.733 -0.135 0.823 0 255 59 76 
3.731 -0.137 0.828 0 255 89 69 
3.732 -0.139 0.834 0 255 85 70 
3.73 -0.14 0.84 0 255 85 70 
3.724 -0.142 0.844 0 255 102 66 
3.727 -0.144 0.85 0 255 114 63 
3.727 -0.146 0.856 0 255 119 62 
3.726 -0.148 0.861 0 255 123 61 
3.721 -0.15 0.866 0 255 119 62 
3.723 -0.152 0.872 0 255 119 62 
3.722 -0.153 0.877 0 255 102 66 
3.721 -0.155 0.882 0 255 80 71 
3.722 -0.157 0.888 0 255 72 73 
3.72 -0.159 0.893 0 255 72 73 
3.716 -0.161 0.897 0 255 72 73 
3.716 -0.163 0.902 0 255 80 71 
3.715 -0.165 0.907 0 255 80 71 
3.723 -0.167 0.915 0 255 46 79 
3.718 -0.169 0.919 0 255 12 87 
3.716 -0.171 0.923 17 255 0 94 
3.718 -0.173 0.929 0 255 0 90 
3.719 -0.175 0.934 0 255 8 88 
3.712 -0.177 0.938 0 255 63 75 
3.706 -0.179 0.941 0 255 80 71 
3.702 -0.181 0.945 0 255 114 63 
3.707 -0.183 0.951 0 255 106 65 
3.704 -0.185 0.955 0 255 110 64 
3.705 -0.187 0.96 0 255 119 62 
3.703 -0.189 0.964 0 255 106 65 
3.7 -0.191 0.968 0 255 110 64 
3.699 -0.193 0.973 0 255 127 60 
3.702 -0.195 0.978 0 255 114 63 
3.702 -0.197 0.983 0 255 119 62 
3.704 -0.199 0.988 0 255 119 62 
3.696 -0.201 0.99 0 255 136 58 
3.702 -0.203 0.996 0 255 131 59 
3.697 -0.205 0.999 0 255 127 60 
3.696 -0.207 1.003 0 255 127 60 
3.695 -0.209 1.007 0 255 110 64 
3.696 -0.211 1.012 0 255 85 70 
3.698 -0.214 1.017 0 255 21 85 
3.7 -0.216 1.022 0 255 4 89 
3.698 -0.218 1.025 46 255 0 101 
3.698 -0.22 1.029 72 255 0 107 
3.7 -0.222 1.034 72 255 0 107 
3.696 -0.224 1.037 72 255 0 107 
3.691 -0.226 1.039 76 255 0 108 
3.697 -0.228 1.045 72 255 0 107 
3.698 -0.23 1.049 72 255 0 107 
3.697 -0.232 1.053 72 255 0 107 
3.687 -0.234 1.054 76 255 0 108 
3.693 -0.236 1.059 63 255 0 105 
3.694 -0.238 1.063 72 255 0 107 
3.689 -0.24 1.065 80 255 0 109 
3.692 -0.243 1.07 72 255 0 107 
3.689 -0.245 1.072 80 255 0 109 
3.69 -0.247 1.076 72 255 0 107 
3.692 -0.249 1.08 89 255 0 111 
3.688 -0.251 1.082 72 255 0 107 
3.689 -0.253 1.086 89 255 0 111 
3.686 -0.255 1.088 72 255 0 107 
3.683 -0.257 1.091 63 255 0 105 
3.687 -0.259 1.096 97 255 0 113 
3.683 -0.261 1.097 72 255 0 107 
3.682 -0.263 1.1 72 255 0 107 
3.685 -0.265 1.104 42 255 0 100 
3.684 -0.267 1.107 0 255 4 89 
3.688 -0.27 1.111 12 255 0 93 
3.679 -0.271 1.111 0 255 68 74 
3.687 -0.274 1.116 0 255 165 51 
3.684 -0.275 1.118 0 212 255 25 
3.677 -0.277 1.119 0 85 255 10 
3.745 0.523 0.729 0 255 63 75 
3.739 0.518 0.724 0 255 136 58 
3.739 0.514 0.721 0 255 204 42 
3.732 0.508 0.716 0 255 233 35 
3.734 0.504 0.712 0 255 229 36 
3.749 0.502 0.711 0 255 187 46 
3.747 0.497 0.707 0 255 178 48 
3.748 0.493 0.704 0 255 178 48 
3.747 0.489 0.7 0 255 182 47 
3.732 0.482 0.693 0 255 216 39 
3.733 0.478 0.689 0 255 216 39 
3.748 0.476 0.688 0 255 165 51 
3.751 0.472 0.685 0 255 153 54 
3.747 0.467 0.68 0 255 153 54 
3.751 0.463 0.676 0 255 161 52 
3.749 0.458 0.672 0 255 153 54 
3.753 0.454 0.668 0 255 161 52 
3.752 0.449 0.664 0 255 153 54 
3.757 0.446 0.661 0 255 144 56 
3.753 0.441 0.656 0 255 127 60 
3.758 0.437 0.652 0 255 38 81 
3.76 0.432 0.648 17 255 0 94 
3.763 0.428 0.644 76 255 0 108 
3.764 0.424 0.64 76 255 0 108 
3.769 0.42 0.636 42 255 0 100 
3.771 0.416 0.632 29 255 0 97 
3.766 0.41 0.627 0 255 38 81 
3.763 0.406 0.622 0 255 110 64 
3.76 0.401 0.617 0 255 136 58 
3.761 0.396 0.612 0 255 136 58 
3.767 0.392 0.609 0 255 123 61 
3.764 0.387 0.603 0 255 136 58 
3.764 0.383 0.599 0 255 131 59 
3.769 0.379 0.595 0 255 144 56 
3.767 0.374 0.589 0 255 136 58 
3.771 0.37 0.585 0 255 144 56 
3.77 0.365 0.58 0 255 136 58 
3.77 0.361 0.575 0 255 131 59 
3.771 0.356 0.57 0 255 131 59 
3.773 0.352 0.566 0 255 136 58 
3.778 0.348 0.562 0 255 119 62 
3.781 0.343 0.557 0 255 136 58 
3.779 0.339 0.552 0 255 93 68 
3.782 0.334 0.547 0 255 0 90 
3.79 0.33 0.543 55 255 0 103 
3.788 0.326 0.537 8 255 0 92 
3.795 0.322 0.533 0 255 76 72 
3.795 -0.269 0.524 0 25 255 3 
3.784 0.396 0.538 0 255 153 54 
3.779 0.399 0.543 0 255 140 57 
3.78 0.402 0.55 0 255 165 51 
3.783 0.405 0.556 0 255 178 48 
3.775 0.408 0.561 0 255 170 50 
3.773 0.411 0.567 0 255 165 51 
3.775 0.414 0.573 0 255 136 58 
3.775 0.417 0.579 0 255 140 57 
3.772 0.42 0.584 0 255 144 56 
3.767 0.422 0.589 0 255 153 54 
3.771 0.425 0.596 0 255 140 57 
3.765 0.428 0.601 0 255 153 54 
3.763 0.43 0.606 0 255 148 55 
3.767 0.434 0.613 0 255 140 57 
3.765 0.436 0.618 0 255 93 68 
3.766 0.439 0.624 0 255 25 84 
3.765 0.442 0.629 0 255 25 84 
3.759 0.444 0.634 0 255 85 70 
3.758 0.446 0.64 0 255 119 62 
3.755 0.449 0.645 0 255 123 61 
3.758 0.452 0.651 0 255 136 58 
3.756 0.454 0.657 0 255 144 56 
3.755 0.457 0.662 0 255 144 56 
3.755 0.459 0.668 0 255 140 57 
3.753 0.461 0.673 0 255 136 58 
3.753 0.464 0.679 0 255 131 59 
3.751 0.466 0.684 0 255 140 57 
3.75 0.468 0.689 0 255 140 57 
3.75 0.47 0.694 0 255 153 54 
3.75 0.473 0.7 0 255 148 55 
3.741 0.474 0.704 0 255 153 54 
3.745 0.477 0.71 0 255 140 57 
3.743 0.479 0.715 0 255 136 58 
3.741 0.481 0.72 0 255 93 68 
3.743 0.483 0.726 0 255 17 86 
3.748 0.486 0.732 34 255 0 98 
3.747 0.488 0.737 63 255 0 105 
3.741 0.489 0.741 89 255 0 111 
3.739 0.491 0.746 97 255 0 113 
3.736 0.492 0.751 89 255 0 111 
3.74 0.495 0.757 80 255 0 109 
3.735 0.496 0.761 97 255 0 113 
3.735 0.498 0.766 106 255 0 115 
3.731 0.499 0.771 127 255 0 120 
3.733 0.502 0.776 106 255 0 115 
3.73 0.503 0.781 97 255 0 113 
3.724 0.504 0.784 127 255 0 120 
3.729 0.506 0.79 106 255 0 115 
3.721 0.507 0.794 114 255 0 117 
3.724 0.509 0.799 127 255 0 120 
3.722 0.51 0.804 136 255 0 122 
3.727 0.513 0.81 127 255 0 120 
3.726 0.514 0.814 89 255 0 111 
3.723 0.515 0.818 51 255 0 102 
3.727 0.517 0.824 0 255 4 89 
3.722 0.518 0.828 0 255 85 70 
3.718 0.519 0.832 0 255 178 48 
3.707 0.519 0.834 0 255 233 35 
3.704 0.52 0.838 0 255 233 35 
3.708 0.522 0.844 0 255 238 34 
3.707 0.523 0.848 0 255 246 32 
3.658 0.518 1.091 0 187 255 22 
3.658 0.517 1.092 0 187 255 22 
3.665 0.517 1.095 0 187 255 22 
3.667 0.516 1.096 0 187 255 22 
3.659 0.514 1.095 0 195 255 23 
3.661 0.513 1.096 0 187 255 22 
3.659 0.511 1.096 0 195 255 23 
3.661 0.51 1.098 0 187 255 22 
3.666 0.51 1.1 0 195 255 23 
3.667 0.509 1.101 0 187 255 22 
3.66 0.506 1.1 0 178 255 21 
3.658 0.504 1.099 0 187 255 22 
3.661 0.503 1.101 0 187 255 22 
3.66 0.502 1.101 0 178 255 21 
3.661 0.5 1.101 0 178 255 21 
3.663 0.499 1.102 0 178 255 21 
3.66 0.497 1.102 0 178 255 21 
3.661 0.496 1.102 0 170 255 20 
3.66 0.494 1.102 0 178 255 21 
3.661 0.493 1.103 0 170 255 20 
3.663 0.492 1.104 0 178 255 21 
3.661 0.49 1.103 0 178 255 21 
3.664 0.488 1.104 0 178 255 21 
3.658 0.486 1.102 0 178 255 21 
3.663 0.485 1.104 0 178 255 21 
3.659 0.483 1.102 0 178 255 21 
3.657 0.481 1.101 0 195 255 23 
3.657 0.479 1.101 0 195 255 23 
3.658 0.477 1.101 0 212 255 25 
3.661 0.476 1.102 0 212 255 25 
3.662 0.474 1.102 0 229 255 27 
3.656 0.472 1.1 0 229 255 27 
3.661 0.47 1.101 0 238 255 28 
3.657 0.468 1.099 0 246 255 29 
3.659 0.467 1.099 0 238 255 28 
3.658 0.465 1.098 0 246 255 29 
3.658 0.463 1.097 0 246 255 29 
3.658 0.461 1.097 0 246 255 29 
3.659 0.459 1.096 0 246 255 29 
3.66 0.457 1.096 0 246 255 29 
3.659 0.455 1.095 0 246 255 29 
3.661 0.453 1.094 0 246 255 29 
3.656 0.45 1.092 0 238 255 28 
3.661 0.449 1.092 0 246 255 29 
3.657 0.447 1.09 0 255 250 31 
3.659 0.445 1.09 0 255 246 32 
3.659 0.443 1.089 0 255 246 32 
3.652 0.44 1.085 0 255 233 35 
3.664 0.439 1.088 0 255 212 40 
3.668 0.437 1.087 0 255 208 41 
3.653 0.433 1.082 0 255 229 36 
3.673 0.433 1.086 0 255 170 50 
3.669 0.431 1.084 0 255 131 59 
3.674 0.429 1.084 0 255 63 75 
3.676 0.427 1.083 0 255 17 86 
3.675 0.425 1.081 29 255 0 97 
3.674 0.422 1.079 21 255 0 95 
3.677 0.42 1.078 42 255 0 100 
3.673 0.418 1.075 34 255 0 98 
3.679 0.416 1.075 51 255 0 102 
3.681 0.414 1.074 42 255 0 100 
3.672 0.411 1.069 51 255 0 102 
3.677 0.409 1.069 42 255 0 100 
3.675 0.406 1.066 55 255 0 103 
3.677 0.404 1.065 34 255 0 98 
3.675 0.401 1.062 51 255 0 102 
3.676 0.399 1.06 51 255 0 102 
3.676 0.397 1.059 51 255 0 102 
3.679 0.394 1.057 55 255 0 103 
3.678 0.392 1.055 51 255 0 102 
3.679 0.389 1.052 51 255 0 102 
3.683 0.387 1.051 34 255 0 98 
3.683 0.385 1.049 55 255 0 103 
3.685 0.383 1.047 29 255 0 97 
3.687 0.38 1.045 42 255 0 100 
3.683 0.377 1.042 51 255 0 102 
3.687 0.375 1.04 34 255 0 98 
3.682 0.372 1.036 34 255 0 98 
3.683 0.37 1.034 4 255 0 91 
3.687 0.367 1.032 29 255 0 97 
3.681 0.364 1.028 0 255 0 90 
3.688 0.362 1.027 0 255 38 81 
3.686 0.359 1.023 0 255 68 74 
3.678 0.356 1.018 0 255 97 67 
3.683 0.354 1.017 0 255 114 63 
3.682 0.351 1.014 0 255 119 62 
3.678 0.348 1.009 0 255 127 60 
3.68 0.346 1.007 0 255 136 58 
3.685 0.344 1.005 0 255 119 62 
3.686 0.341 1.002 0 255 110 64 
3.684 0.338 0.998 0 255 106 65 
3.68 0.335 0.994 0 255 119 62 
3.686 0.333 0.992 0 255 106 65 
3.687 0.33 0.989 0 255 68 74 
3.692 0.328 0.987 0 255 21 85 
3.692 0.325 0.984 25 255 0 96 
3.698 0.323 0.982 25 255 0 96 
3.692 0.32 0.977 59 255 0 104 
3.697 0.317 0.975 85 255 0 110 
3.694 0.314 0.97 59 255 0 104 
3.696 0.312 0.967 85 255 0 110 
3.694 0.309 0.963 68 255 0 106 
3.7 0.306 0.961 76 255 0 108 
3.697 0.303 0.956 68 255 0 106 
3.703 0.301 0.954 93 255 0 112 
3.699 0.298 0.949 68 255 0 106 
3.703 0.295 0.946 85 255 0 110 
3.701 0.292 0.941 68 255 0 106 
3.705 0.29 0.938 85 255 0 110 
3.703 0.287 0.934 59 255 0 104 
3.703 0.284 0.93 17 255 0 94 
3.7 0.281 0.925 0 255 8 88 
3.706 0.279 0.922 4 255 0 91 
3.7 0.275 0.916 0 255 29 83 
3.707 0.273 0.914 0 255 51 78 
3.704 0.27 0.909 0 255 21 85 
3.705 0.267 0.905 0 255 21 85 
3.706 0.264 0.901 0 255 21 85 
3.702 0.261 0.895 0 255 34 82 
3.707 0.259 0.892 0 255 29 83 
3.705 0.256 0.887 0 255 29 83 
3.709 0.253 0.883 0 255 29 83 
3.708 0.25 0.878 0 255 42 80 
3.712 0.248 0.875 0 255 29 83 
3.709 0.244 0.869 0 255 34 82 
3.713 0.242 0.865 0 255 21 85 
3.712 0.239 0.86 0 255 25 84 
3.712 0.236 0.855 0 255 17 86 
3.71 0.233 0.85 21 255 0 95 
3.718 0.231 0.847 12 255 0 93 
3.722 0.228 0.843 29 255 0 97 
3.724 0.225 0.838 42 255 0 100 
3.723 0.222 0.833 51 255 0 102 
3.726 0.22 0.829 42 255 0 100 
3.722 0.217 0.823 21 255 0 95 
3.719 0.214 0.817 21 255 0 95 
3.719 0.211 0.812 0 255 12 87 
3.721 0.208 0.807 21 255 0 95 
3.721 0.205 0.802 0 255 12 87 
3.722 0.202 0.797 0 255 4 89 
3.72 0.199 0.791 12 255 0 93 
3.73 0.197 0.788 12 255 0 93 
3.726 0.194 0.782 0 255 12 87 
3.729 0.191 0.777 21 255 0 95 
3.728 0.188 0.771 0 255 4 89 
3.73 0.186 0.766 0 255 12 87 
3.73 0.183 0.761 0 255 4 89 
3.732 0.18 0.755 0 255 12 87 
3.733 0.177 0.75 0 255 4 89 
3.734 0.175 0.745 0 255 4 89 
3.733 0.172 0.739 0 255 12 87 
3.736 0.169 0.734 0 255 4 89 
3.739 0.167 0.728 21 255 0 95 
3.75 0.164 0.725 29 255 0 97 
3.746 0.161 0.718 55 255 0 103 
3.753 0.159 0.713 93 255 0 112 
3.759 0.156 0.709 123 255 0 119 
3.76 0.153 0.703 123 255 0 119 
3.758 0.151 0.696 102 255 0 114 
3.764 0.148 0.691 136 255 0 122 
3.758 0.145 0.684 102 255 0 114 
3.76 0.142 0.679 110 255 0 116 
3.766 0.14 0.674 123 255 0 119 
3.762 0.137 0.667 110 255 0 116 
3.763 0.135 0.661 93 255 0 112 
3.759 0.132 0.654 55 255 0 103 
3.761 0.129 0.648 21 255 0 95 
3.759 0.126 0.641 17 255 0 94 
3.757 0.124 0.635 12 255 0 93 
3.758 0.121 0.628 12 255 0 93 
3.765 0.119 0.623 21 255 0 95 
3.774 0.116 0.618 59 255 0 104 
3.774 0.114 0.612 102 255 0 114 
3.779 0.111 0.606 144 255 0 124 
3.783 0.109 0.6 144 255 0 124 
3.776 0.106 0.592 110 255 0 116 
3.782 0.103 0.587 123 255 0 119 
3.781 0.101 0.58 131 255 0 121 
3.784 0.098 0.574 144 255 0 124 
3.785 0.096 0.567 144 255 0 124 
3.789 0.093 0.561 144 255 0 124 
3.788 0.091 0.554 157 255 0 127 
3.791 0.088 0.548 144 255 0 124 
3.791 0.086 0.541 68 255 0 106 
3.796 0.084 0.535 0 255 93 68 
3.792 0.081 0.528 0 153 255 18 
8.645 -0.033 0.394 0 144 255 17 
8.603 0.111 0.387 0 161 255 19 
3.797 0.162 0.529 0 255 136 58 
3.775 0.163 0.533 0 255 199 43 
3.788 0.165 0.542 0 255 97 67 
3.781 0.166 0.548 0 255 89 69 
3.783 0.168 0.555 0 255 80 71 
3.78 0.169 0.562 0 255 59 76 
3.777 0.17 0.568 0 255 21 85 
3.773 0.172 0.575 0 255 34 82 
3.774 0.173 0.582 0 255 46 79 
3.772 0.174 0.588 0 255 29 83 
3.77 0.176 0.595 0 255 21 85 
3.767 0.177 0.601 4 255 0 91 
3.765 0.178 0.608 4 255 0 91 
3.766 0.18 0.615 12 255 0 93 
3.766 0.181 0.622 51 255 0 102 
3.767 0.182 0.629 110 255 0 116 
3.774 0.184 0.637 144 255 0 124 
3.771 0.185 0.643 157 255 0 127 
3.768 0.186 0.649 174 255 0 131 
3.768 0.187 0.656 157 255 0 127 
3.766 0.188 0.662 144 255 0 124 
3.763 0.189 0.668 157 255 0 127 
3.764 0.19 0.675 174 255 0 131 
3.762 0.191 0.681 144 255 0 124 
3.748 0.191 0.686 182 255 0 133 
3.76 0.192 0.694 144 255 0 124 
3.757 0.193 0.7 157 255 0 127 
3.752 0.194 0.706 119 255 0 118 
3.754 0.195 0.713 131 255 0 121 
3.744 0.195 0.717 72 255 0 107 
3.74 0.196 0.723 42 255 0 100 
3.738 0.197 0.729 34 255 0 98 
3.739 0.197 0.735 21 255 0 95 
3.736 0.198 0.741 12 255 0 93 
3.732 0.199 0.747 0 255 4 89 
3.728 0.199 0.752 12 255 0 93 
3.732 0.2 0.759 34 255 0 98 
3.734 0.201 0.766 29 255 0 97 
3.729 0.201 0.771 34 255 0 98 
3.723 0.201 0.776 12 255 0 93 
3.727 0.202 0.783 34 255 0 98 
3.726 0.203 0.789 42 255 0 100 
3.724 0.203 0.794 34 255 0 98 
3.723 0.204 0.8 34 255 0 98 
3.722 0.204 0.806 34 255 0 98 
3.722 0.204 0.812 21 255 0 95 
3.727 0.205 0.819 51 255 0 102 
3.724 0.205 0.824 63 255 0 105 
3.728 0.206 0.831 102 255 0 114 
3.725 0.206 0.836 110 255 0 116 
3.727 0.207 0.843 131 255 0 121 
3.727 0.207 0.848 123 255 0 119 
3.723 0.207 0.853 102 255 0 114 
3.722 0.207 0.859 102 255 0 114 
3.721 0.208 0.864 102 255 0 114 
3.722 0.208 0.87 123 255 0 119 
3.722 0.208 0.876 136 255 0 122 
3.717 0.208 0.88 102 255 0 114 
3.719 0.208 0.886 123 255 0 119 
3.717 0.208 0.891 123 255 0 119 
3.719 0.209 0.897 102 255 0 114 
3.718 0.209 0.902 102 255 0 114 
3.716 0.209 0.907 102 255 0 114 
3.708 0.208 0.911 93 255 0 112 
3.712 0.208 0.917 59 255 0 104 
3.705 0.208 0.921 29 255 0 97 
3.707 0.208 0.926 4 255 0 91 
3.7 0.208 0.93 0 255 8 88 
3.692 0.207 0.933 0 255 17 86 
3.7 0.208 0.94 0 255 21 85 
3.697 0.207 0.944 0 255 29 83 
3.696 0.207 0.949 0 255 29 83 
3.699 0.207 0.955 0 255 34 82 
3.692 0.207 0.958 0 255 34 82 
3.692 0.207 0.963 0 255 29 83 
3.692 0.206 0.968 0 255 46 79 
3.691 0.206 0.972 0 255 59 76 
3.694 0.206 0.978 0 255 51 78 
3.694 0.206 0.983 0 255 68 74 
3.692 0.206 0.987 0 255 51 78 
3.689 0.205 0.991 0 255 46 79 
3.688 0.205 0.995 0 255 46 79 
3.689 0.204 1 0 255 51 78 
3.688 0.204 1.005 0 255 51 78 
3.686 0.204 1.009 0 255 51 78 
3.686 0.203 1.013 0 255 46 79 
3.692 0.203 1.019 0 255 21 85 
3.688 0.202 1.023 17 255 0 94 
3.691 0.202 1.028 25 255 0 96 
3.684 0.201 1.03 68 255 0 106 
3.686 0.201 1.035 102 255 0 114 
3.686 0.201 1.039 93 255 0 112 
3.685 0.2 1.043 114 255 0 117 
3.685 0.2 1.047 102 255 0 114 
3.684 0.199 1.051 102 255 0 114 
3.683 0.198 1.055 102 255 0 114 
3.681 0.198 1.059 93 255 0 112 
3.679 0.197 1.062 102 255 0 114 
3.68 0.196 1.066 102 255 0 114 
3.679 0.196 1.07 102 255 0 114 
3.678 0.195 1.073 102 255 0 114 
3.676 0.194 1.077 114 255 0 117 
3.678 0.194 1.081 114 255 0 117 
3.677 0.193 1.084 93 255 0 112 
3.679 0.192 1.089 76 255 0 108 
3.673 0.191 1.091 102 255 0 114 
3.672 0.191 1.094 102 255 0 114 
3.671 0.19 1.097 102 255 0 114 
3.675 0.189 1.102 76 255 0 108 
3.675 0.189 1.105 55 255 0 103 
3.676 0.188 1.109 21 255 0 95 
3.677 0.187 1.113 0 255 42 80 
3.677 0.186 1.116 0 255 131 59 
3.671 0.185 1.117 0 255 242 33 
3.674 0.184 1.121 0 153 255 18 
3.676 0.184 1.125 0 51 255 6 
3.66 0.182 1.124 0 17 255 2 
3.612 0.011 1.109 0 8 255 1 
3.649 0.008 1.115 0 17 255 2 
3.677 0.007 1.12 0 76 255 9 
3.679 0.005 1.117 0 195 255 23 
3.685 0.004 1.116 0 255 191 45 
3.686 0.002 1.113 0 255 97 67 
3.68 0 1.108 0 255 17 86 
3.685 0 1.106 12 255 0 93 
3.682 -0.002 1.101 46 255 0 101 
3.682 -0.003 1.098 72 255 0 107 
3.686 -0.005 1.095 55 255 0 103 
3.681 -0.006 1.09 68 255 0 106 
3.682 -0.008 1.087 68 255 0 106 
3.683 -0.009 1.083 68 255 0 106 
3.683 -0.011 1.08 63 255 0 105 
3.69 -0.012 1.078 63 255 0 105 
3.683 -0.014 1.072 76 255 0 108 
3.687 -0.016 1.069 68 255 0 106 
3.686 -0.017 1.065 102 255 0 114 
3.68 -0.018 1.059 76 255 0 108 
3.688 -0.02 1.057 102 255 0 114 
3.686 -0.021 1.053 85 255 0 110 
3.693 -0.023 1.05 68 255 0 106 
3.699 -0.025 1.048 63 255 0 105 
3.697 -0.026 1.043 63 255 0 105 
3.698 -0.027 1.039 63 255 0 105 
3.698 -0.029 1.035 46 255 0 101 
3.698 -0.03 1.03 25 255 0 96 
3.694 -0.032 1.025 0 255 8 88 
3.691 -0.033 1.019 4 255 0 91 
3.693 -0.035 1.015 0 255 51 78 
3.691 -0.036 1.01 0 255 80 71 
3.693 -0.037 1.006 0 255 80 71 
3.694 -0.039 1.002 0 255 80 71 
3.694 -0.04 0.997 0 255 85 70 
3.698 -0.041 0.994 0 255 72 73 
3.697 -0.043 0.989 0 255 80 71 
3.698 -0.044 0.984 0 255 80 71 
3.699 -0.046 0.979 0 255 85 70 
3.701 -0.047 0.975 0 255 80 71 
3.7 -0.048 0.97 0 255 80 71 
3.703 -0.05 0.966 0 255 80 71 
3.703 -0.051 0.961 0 255 72 73 
3.704 -0.052 0.956 0 255 59 76 
3.703 -0.054 0.95 0 255 63 75 
3.704 -0.055 0.945 0 255 63 75 
3.71 -0.056 0.942 0 255 68 74 
3.707 -0.057 0.936 0 255 63 75 
3.71 -0.059 0.931 0 255 59 76 
3.711 -0.06 0.926 0 255 59 76 
3.71 -0.061 0.921 0 255 21 85 
3.719 -0.062 0.918 25 255 0 96 
3.719 -0.064 0.912 59 255 0 104 
3.718 -0.065 0.906 68 255 0 106 
3.721 -0.066 0.902 76 255 0 108 
3.731 -0.067 0.898 63 255 0 105 
3.722 -0.068 0.891 68 255 0 106 
3.728 -0.069 0.886 59 255 0 104 
3.726 -0.07 0.88 46 255 0 101 
3.731 -0.072 0.876 38 255 0 99 
3.724 -0.073 0.868 38 255 0 99 
3.724 -0.074 0.863 29 255 0 97 
3.733 -0.075 0.859 25 255 0 96 
3.73 -0.076 0.853 17 255 0 94 
3.729 -0.077 0.846 0 255 8 88 
3.726 -0.078 0.84 0 255 8 88 
3.727 -0.079 0.834 0 255 8 88 
3.723 -0.08 0.827 0 255 12 87 
3.733 -0.081 0.823 0 255 21 85 
3.738 -0.082 0.818 8 255 0 92 
3.736 -0.083 0.812 38 255 0 99 
3.743 -0.084 0.807 68 255 0 106 
3.744 -0.085 0.801 76 255 0 108 
3.744 -0.086 0.795 85 255 0 110 
3.747 -0.087 0.789 68 255 0 106 
3.75 -0.087 0.784 93 255 0 112 
3.746 -0.088 0.777 76 255 0 108 
3.75 -0.089 0.771 76 255 0 108 
3.755 -0.09 0.766 85 255 0 110 
3.755 -0.091 0.759 93 255 0 112 
3.757 -0.092 0.753 93 255 0 112 
3.754 -0.092 0.746 85 255 0 110 
3.752 -0.093 0.739 102 255 0 114 
3.756 -0.094 0.734 85 255 0 110 
3.757 -0.094 0.727 68 255 0 106 
3.755 -0.095 0.72 0 255 8 88 
3.755 -0.096 0.714 0 255 21 85 
3.751 -0.096 0.706 0 255 42 80 
3.755 -0.097 0.7 0 255 29 83 
3.754 -0.098 0.693 0 255 42 80 
3.757 -0.098 0.687 0 255 34 82 
3.758 -0.099 0.681 0 255 34 82 
3.759 -0.099 0.674 0 255 34 82 
3.763 -0.1 0.668 0 255 21 85 
3.762 -0.101 0.661 0 255 29 83 
3.767 -0.101 0.655 0 255 42 80 
3.771 -0.102 0.649 0 255 38 81 
3.769 -0.102 0.641 0 255 51 78 
3.773 -0.103 0.635 0 255 51 78 
3.772 -0.103 0.628 0 255 59 76 
3.783 -0.104 0.623 0 255 21 85 
3.786 -0.104 0.616 17 255 0 94 
3.78 -0.104 0.608 68 255 0 106 
3.786 -0.105 0.602 93 255 0 112 
3.787 -0.105 0.595 102 255 0 114 
3.79 -0.105 0.588 102 255 0 114 
3.789 -0.106 0.581 102 255 0 114 
3.792 -0.106 0.574 102 255 0 114 
3.793 -0.106 0.567 102 255 0 114 
3.794 -0.106 0.56 102 255 0 114 
3.792 -0.106 0.552 85 255 0 110 
3.796 -0.107 0.546 102 255 0 114 
3.793 -0.107 0.538 93 255 0 112 
3.8 -0.107 0.532 63 255 0 105 
3.807 -0.107 0.525 0 255 59 76 
8.598 -0.053 0.381 0 161 255 19 
8.816 -0.054 0.409 0 144 255 17 
9.919 -0.056 0.544 0 187 255 22 
3.793 -0.027 0.532 0 255 131 59 
3.793 -0.028 0.539 0 255 93 68 
3.79 -0.028 0.546 0 255 72 73 
3.789 -0.029 0.553 0 255 72 73 
3.782 -0.03 0.56 0 255 63 75 
3.783 -0.03 0.567 0 255 59 76 
3.778 -0.031 0.574 0 255 29 83 
3.779 -0.032 0.581 0 255 21 85 
3.775 -0.033 0.587 0 255 8 88 
3.779 -0.033 0.595 8 255 0 92 
3.779 -0.034 0.602 4 255 0 91 
3.772 -0.035 0.608 0 255 8 88 
3.77 -0.036 0.615 12 255 0 93 
3.779 -0.037 0.624 68 255 0 106 
3.776 -0.038 0.63 144 255 0 124 
3.778 -0.039 0.637 144 255 0 124 
3.775 -0.04 0.644 136 255 0 122 
3.775 -0.041 0.651 144 255 0 124 
3.774 -0.042 0.658 144 255 0 124 
3.773 -0.043 0.664 144 255 0 124 
3.77 -0.044 0.671 136 255 0 122 
3.768 -0.045 0.677 123 255 0 119 
3.768 -0.046 0.684 136 255 0 122 
3.763 -0.047 0.69 131 255 0 121 
3.764 -0.048 0.697 123 255 0 119 
3.763 -0.049 0.703 123 255 0 119 
3.759 -0.05 0.709 102 255 0 114 
3.759 -0.051 0.716 59 255 0 104 
3.752 -0.052 0.721 4 255 0 91 
3.748 -0.054 0.727 4 255 0 91 
3.741 -0.055 0.732 12 255 0 93 
3.741 -0.056 0.738 21 255 0 95 
3.739 -0.057 0.744 12 255 0 93 
3.738 -0.058 0.751 21 255 0 95 
3.748 -0.06 0.759 0 255 8 88 
3.741 -0.061 0.764 4 255 0 91 
3.739 -0.062 0.77 4 255 0 91 
3.733 -0.063 0.775 21 255 0 95 
3.744 -0.065 0.783 8 255 0 92 
3.74 -0.066 0.789 25 255 0 96 
3.74 -0.068 0.795 0 255 8 88 
3.735 -0.069 0.8 12 255 0 93 
3.738 -0.07 0.807 38 255 0 99 
3.735 -0.072 0.812 29 255 0 97 
3.731 -0.073 0.818 12 255 0 93 
3.735 -0.074 0.824 8 255 0 92 
3.733 -0.076 0.83 8 255 0 92 
3.733 -0.077 0.836 4 255 0 91 
3.727 -0.079 0.84 0 255 29 83 
3.723 -0.08 0.845 0 255 29 83 
3.725 -0.082 0.852 0 255 17 86 
3.722 -0.083 0.857 0 255 21 85 
3.724 -0.085 0.863 0 255 21 85 
3.722 -0.086 0.868 0 255 21 85 
3.718 -0.087 0.873 0 255 34 82 
3.715 -0.089 0.878 0 255 42 80 
3.72 -0.091 0.885 0 255 51 78 
3.719 -0.092 0.89 0 255 59 76 
3.72 -0.094 0.896 0 255 51 78 
3.72 -0.095 0.901 0 255 46 79 
3.718 -0.097 0.906 0 255 46 79 
3.715 -0.098 0.911 0 255 34 82 
3.72 -0.1 0.917 17 255 0 94 
3.723 -0.102 0.924 17 255 0 94 
3.718 -0.103 0.928 85 255 0 110 
3.72 -0.105 0.933 102 255 0 114 
3.717 -0.107 0.938 114 255 0 117 
3.716 -0.108 0.943 114 255 0 117 
3.716 -0.11 0.948 102 255 0 114 
3.715 -0.112 0.953 102 255 0 114 
3.712 -0.113 0.957 93 255 0 112 
3.711 -0.115 0.962 93 255 0 112 
3.711 -0.117 0.966 102 255 0 114 
3.71 -0.118 0.971 102 255 0 114 
3.71 -0.12 0.976 93 255 0 112 
3.707 -0.122 0.98 102 255 0 114 
3.706 -0.123 0.985 102 255 0 114 
3.707 -0.125 0.99 114 255 0 117 
3.703 -0.127 0.993 102 255 0 114 
3.702 -0.129 0.998 102 255 0 114 
3.701 -0.13 1.002 102 255 0 114 
3.7 -0.132 1.006 102 255 0 114 
3.702 -0.134 1.011 46 255 0 101 
3.704 -0.136 1.016 29 255 0 97 
3.699 -0.137 1.019 0 255 46 79 
3.698 -0.139 1.024 0 255 89 69 
3.697 -0.141 1.028 0 255 114 63 
3.693 -0.142 1.031 0 255 123 61 
3.691 -0.144 1.035 0 255 123 61 
3.69 -0.146 1.038 0 255 123 61 
3.684 -0.148 1.041 0 255 136 58 
3.688 -0.15 1.046 0 255 153 54 
3.689 -0.151 1.05 0 255 140 57 
3.69 -0.153 1.055 0 255 140 57 
3.689 -0.155 1.059 0 255 140 57 
3.683 -0.157 1.061 0 255 153 54 
3.686 -0.159 1.065 0 255 165 51 
3.69 -0.161 1.07 0 255 153 54 
3.689 -0.162 1.074 0 255 178 48 
3.681 -0.164 1.075 0 255 191 45 
3.671 -0.165 1.076 0 255 221 38 
3.67 -0.167 1.079 0 255 221 38 
3.67 -0.169 1.083 0 255 225 37 
3.685 -0.171 1.091 0 255 199 43 
3.682 -0.173 1.093 0 255 191 45 
3.688 -0.175 1.099 0 255 161 52 
3.689 -0.177 1.103 0 255 102 66 
3.688 -0.179 1.105 0 255 63 75 
3.684 -0.181 1.108 0 255 55 77 
3.686 -0.182 1.112 0 255 63 75 
3.689 -0.185 1.116 0 255 114 63 
3.685 -0.186 1.118 0 255 182 47 
3.683 -0.188 1.12 0 212 255 25 
3.752 0.525 0.644 0 255 246 32 
3.767 0.523 0.643 0 255 216 39 
3.762 0.517 0.638 0 255 191 45 
3.77 0.513 0.636 0 255 148 55 
3.768 0.508 0.631 0 255 63 75 
3.768 0.503 0.628 21 255 0 95 
3.772 0.499 0.624 4 255 0 91 
3.769 0.494 0.62 72 255 0 107 
3.77 0.489 0.616 72 255 0 107 
3.771 0.485 0.612 72 255 0 107 
3.773 0.48 0.608 72 255 0 107 
3.774 0.475 0.604 72 255 0 107 
3.775 0.47 0.601 72 255 0 107 
3.776 0.466 0.597 72 255 0 107 
3.776 0.461 0.592 80 255 0 109 
3.779 0.456 0.588 72 255 0 107 
3.778 0.451 0.584 80 255 0 109 
3.778 0.446 0.58 55 255 0 103 
3.781 0.442 0.576 12 255 0 93 
3.78 0.437 0.571 0 255 72 73 
3.779 0.432 0.567 0 255 153 54 
3.78 0.427 0.563 0 255 178 48 
3.765 0.42 0.556 0 255 221 38 
3.771 0.416 0.552 0 255 233 35 
3.772 0.411 0.548 0 255 233 35 
3.771 0.406 0.543 0 255 225 37 
3.77 0.401 0.538 0 255 221 38 
3.782 0.397 0.535 0 255 246 32 
11.024 0.388 0.696 0 93 255 11 
8.735 -0.212 0.394 0 144 255 17 
3.802 -0.22 0.529 0 255 178 48 
3.792 -0.222 0.534 0 255 153 54 
3.791 -0.225 0.541 0 255 153 54 
3.799 -0.229 0.549 0 255 144 56 
3.796 -0.232 0.555 0 255 136 58 
3.796 -0.235 0.562 0 255 148 55 
3.791 -0.237 0.567 0 255 165 51 
3.79 -0.24 0.574 0 255 165 51 
3.793 -0.244 0.581 0 255 153 54 
3.791 -0.247 0.587 0 255 148 55 
3.782 -0.249 0.592 0 255 153 54 
3.784 -0.253 0.599 0 255 161 52 
3.786 -0.256 0.605 0 255 153 54 
3.784 -0.259 0.611 0 255 106 65 
3.788 -0.262 0.618 0 255 46 79 
3.79 -0.266 0.625 0 255 59 76 
3.794 -0.269 0.632 0 255 174 49 
3.791 -0.272 0.637 0 144 255 17 
3.785 0.463 0.533 8 255 0 92 
3.782 0.466 0.538 89 255 0 111 
3.784 0.47 0.544 153 255 0 126 
3.779 0.473 0.549 191 255 0 135 
3.781 0.477 0.555 153 255 0 126 
3.783 0.48 0.561 127 255 0 120 
3.781 0.483 0.566 140 255 0 123 
3.772 0.485 0.57 178 255 0 132 
3.771 0.489 0.575 148 255 0 125 
3.78 0.493 0.582 119 255 0 118 
3.775 0.496 0.587 97 255 0 113 
3.774 0.499 0.592 97 255 0 113 
3.774 0.502 0.598 89 255 0 111 
3.775 0.505 0.604 119 255 0 118 
3.772 0.508 0.609 110 255 0 116 
3.771 0.511 0.614 110 255 0 116 
3.768 0.513 0.619 34 255 0 98 
3.768 0.516 0.624 0 255 8 88 
3.767 0.519 0.629 0 255 102 66 
3.767 0.522 0.635 0 255 182 47 
3.761 0.524 0.639 0 255 208 41 
3.756 0.526 0.644 0 255 212 40 
3.672 0.518 1.038 0 238 255 28 
3.689 0.518 1.042 0 255 246 32 
3.687 0.515 1.04 0 255 233 35 
3.686 0.513 1.038 0 255 221 38 
3.687 0.511 1.037 0 255 204 42 
3.686 0.508 1.035 0 255 182 47 
3.684 0.505 1.033 0 255 165 51 
3.689 0.503 1.032 0 255 131 59 
3.688 0.501 1.031 0 255 106 65 
3.684 0.498 1.028 0 255 76 72 
3.692 0.496 1.028 0 255 25 84 
3.693 0.494 1.026 0 255 12 87 
3.691 0.491 1.024 12 255 0 93 
3.687 0.488 1.021 0 255 4 89 
3.69 0.485 1.02 12 255 0 93 
3.693 0.483 1.019 21 255 0 95 
3.689 0.48 1.016 42 255 0 100 
3.693 0.478 1.014 29 255 0 97 
3.69 0.475 1.011 51 255 0 102 
3.69 0.472 1.009 42 255 0 100 
3.693 0.47 1.008 42 255 0 100 
3.698 0.468 1.007 51 255 0 102 
3.694 0.464 1.004 42 255 0 100 
3.691 0.461 1 17 255 0 94 
3.691 0.458 0.998 29 255 0 97 
3.695 0.456 0.996 42 255 0 100 
3.693 0.453 0.993 42 255 0 100 
3.699 0.451 0.992 42 255 0 100 
3.693 0.447 0.988 34 255 0 98 
3.701 0.445 0.988 42 255 0 100 
3.702 0.443 0.985 42 255 0 100 
3.699 0.439 0.982 34 255 0 98 
3.703 0.437 0.98 21 255 0 95 
3.699 0.434 0.976 8 255 0 92 
3.7 0.431 0.973 0 255 46 79 
3.702 0.428 0.971 0 255 102 66 
3.696 0.424 0.966 0 255 136 58 
3.695 0.421 0.963 0 255 140 57 
3.698 0.419 0.961 0 255 136 58 
3.699 0.416 0.958 0 255 136 58 
3.697 0.413 0.954 0 255 136 58 
3.697 0.41 0.951 0 255 131 59 
3.701 0.407 0.949 0 255 131 59 
3.698 0.404 0.945 0 255 119 62 
3.697 0.4 0.941 0 255 123 61 
3.7 0.398 0.939 0 255 119 62 
3.702 0.395 0.935 0 255 119 62 
3.703 0.392 0.932 0 255 97 67 
3.709 0.389 0.93 0 255 55 77 
3.71 0.386 0.927 0 255 17 86 
3.707 0.383 0.923 0 255 0 90 
3.709 0.38 0.92 17 255 0 94 
3.715 0.378 0.917 42 255 0 100 
3.717 0.375 0.914 51 255 0 102 
3.709 0.371 0.908 85 255 0 110 
3.72 0.368 0.907 51 255 0 102 
3.719 0.365 0.903 63 255 0 105 
3.721 0.362 0.9 55 255 0 103 
3.722 0.359 0.896 55 255 0 103 
3.721 0.356 0.892 72 255 0 107 
3.721 0.353 0.888 76 255 0 108 
3.722 0.35 0.884 63 255 0 105 
3.723 0.346 0.88 76 255 0 108 
3.718 0.343 0.875 93 255 0 112 
3.721 0.34 0.871 85 255 0 110 
3.728 0.337 0.869 55 255 0 103 
3.726 0.334 0.864 8 255 0 92 
3.723 0.33 0.859 4 255 0 91 
3.724 0.327 0.855 0 255 46 79 
3.719 0.323 0.849 0 255 68 74 
3.721 0.32 0.845 0 255 63 75 
3.724 0.317 0.842 0 255 68 74 
3.72 0.314 0.836 0 255 59 76 
3.725 0.311 0.833 0 255 63 75 
3.732 0.308 0.83 0 255 21 85 
3.732 0.305 0.825 25 255 0 96 
3.729 0.301 0.82 8 255 0 92 
3.734 0.298 0.816 85 255 0 110 
3.734 0.295 0.811 93 255 0 112 
3.735 0.292 0.807 93 255 0 112 
3.739 0.289 0.803 93 255 0 112 
3.741 0.286 0.798 93 255 0 112 
3.742 0.283 0.793 93 255 0 112 
3.74 0.279 0.788 93 255 0 112 
3.743 0.276 0.784 102 255 0 114 
3.746 0.273 0.779 102 255 0 114 
3.746 0.27 0.774 102 255 0 114 
3.745 0.267 0.769 114 255 0 117 
3.745 0.263 0.764 102 255 0 114 
3.744 0.26 0.758 123 255 0 119 
3.745 0.257 0.753 85 255 0 110 
3.752 0.254 0.749 102 255 0 114 
3.753 0.251 0.744 102 255 0 114 
3.754 0.247 0.739 102 255 0 114 
3.749 0.244 0.733 68 255 0 106 
3.747 0.24 0.727 38 255 0 99 
3.748 0.237 0.722 17 255 0 94 
3.753 0.234 0.717 0 255 4 89 
3.751 0.231 0.711 21 255 0 95 
3.751 0.228 0.706 93 255 0 112 
3.757 0.225 0.701 144 255 0 124 
3.759 0.221 0.696 136 255 0 122 
3.759 0.218 0.69 123 255 0 119 
3.766 0.215 0.686 102 255 0 114 
3.762 0.212 0.679 123 255 0 119 
3.763 0.209 0.674 123 255 0 119 
3.761 0.205 0.667 102 255 0 114 
3.765 0.202 0.662 123 255 0 119 
3.773 0.2 0.658 114 255 0 117 
3.768 0.196 0.651 123 255 0 119 
3.769 0.193 0.645 123 255 0 119 
3.776 0.19 0.641 123 255 0 119 
3.768 0.186 0.633 102 255 0 114 
3.768 0.183 0.627 38 255 0 99 
3.773 0.18 0.622 12 255 0 93 
3.769 0.177 0.615 0 255 21 85 
3.767 0.174 0.608 0 255 17 86 
3.77 0.171 0.603 0 255 29 83 
3.774 0.168 0.597 0 255 42 80 
3.778 0.165 0.591 0 255 51 78 
3.777 0.161 0.585 0 255 59 76 
3.778 0.158 0.579 0 255 59 76 
3.782 0.155 0.573 0 255 68 74 
3.781 0.152 0.567 0 255 85 70 
3.786 0.149 0.561 0 255 97 67 
3.785 0.146 0.554 0 255 106 65 
3.785 0.143 0.548 0 255 102 66 
3.786 0.14 0.541 0 255 131 59 
3.785 0.137 0.535 0 255 216 39 
3.789 0.134 0.529 0 204 255 24 
8.578 0.006 0.385 0 136 255 16 
3.786 0.22 0.529 0 144 255 17 
3.776 0.221 0.534 0 255 208 41 
3.784 0.224 0.542 0 255 72 73 
3.779 0.225 0.548 0 255 59 76 
3.78 0.228 0.555 0 255 51 78 
3.779 0.23 0.562 0 255 51 78 
3.779 0.232 0.569 0 255 46 79 
3.777 0.234 0.575 0 255 38 81 
3.775 0.235 0.582 4 255 0 91 
3.779 0.237 0.589 17 255 0 94 
3.772 0.239 0.595 29 255 0 97 
3.775 0.241 0.602 68 255 0 106 
3.775 0.243 0.608 102 255 0 114 
3.774 0.245 0.615 102 255 0 114 
3.766 0.246 0.62 38 255 0 99 
3.769 0.248 0.627 0 255 0 90 
3.76 0.249 0.632 0 255 8 88 
3.764 0.251 0.639 4 255 0 91 
3.752 0.252 0.644 17 255 0 94 
3.76 0.254 0.652 17 255 0 94 
3.754 0.255 0.657 0 255 4 89 
3.758 0.257 0.664 8 255 0 92 
3.756 0.258 0.67 17 255 0 94 
3.753 0.26 0.676 25 255 0 96 
3.754 0.261 0.683 17 255 0 94 
3.748 0.262 0.688 0 255 4 89 
3.753 0.264 0.695 4 255 0 91 
3.749 0.265 0.701 0 255 21 85 
3.744 0.266 0.706 0 255 17 86 
3.75 0.268 0.714 0 255 8 88 
3.746 0.269 0.719 0 255 8 88 
3.75 0.271 0.726 59 255 0 104 
3.752 0.272 0.733 114 255 0 117 
3.75 0.273 0.738 144 255 0 124 
3.746 0.274 0.744 136 255 0 122 
3.747 0.275 0.75 144 255 0 124 
3.749 0.277 0.757 123 255 0 119 
3.743 0.277 0.761 136 255 0 122 
3.746 0.279 0.768 123 255 0 119 
3.742 0.28 0.773 144 255 0 124 
3.739 0.28 0.779 136 255 0 122 
3.742 0.282 0.785 123 255 0 119 
3.742 0.283 0.791 114 255 0 117 
3.738 0.283 0.796 114 255 0 117 
3.737 0.284 0.802 114 255 0 117 
3.736 0.285 0.807 114 255 0 117 
3.737 0.286 0.814 114 255 0 117 
3.731 0.287 0.818 51 255 0 102 
3.731 0.287 0.824 25 255 0 96 
3.731 0.288 0.829 0 255 12 87 
3.72 0.288 0.833 0 255 21 85 
3.723 0.289 0.839 0 255 38 81 
3.718 0.29 0.843 0 255 21 85 
3.717 0.29 0.849 0 255 21 85 
3.715 0.291 0.854 0 255 21 85 
3.719 0.292 0.86 0 255 46 79 
3.715 0.292 0.865 0 255 46 79 
3.717 0.293 0.871 0 255 46 79 
3.72 0.294 0.877 0 255 25 84 
3.714 0.294 0.881 0 255 46 79 
3.712 0.294 0.886 0 255 38 81 
3.715 0.295 0.891 0 255 34 82 
3.709 0.295 0.896 0 255 51 78 
3.709 0.295 0.901 0 255 46 79 
3.708 0.296 0.906 0 255 46 79 
3.706 0.296 0.91 0 255 51 78 
3.708 0.297 0.916 0 255 34 82 
3.712 0.297 0.922 0 255 0 90 
3.709 0.297 0.926 25 255 0 96 
3.709 0.298 0.931 46 255 0 101 
3.708 0.298 0.936 102 255 0 114 
3.707 0.298 0.941 102 255 0 114 
3.706 0.298 0.945 102 255 0 114 
3.707 0.299 0.95 93 255 0 112 
3.704 0.299 0.955 102 255 0 114 
3.705 0.299 0.96 68 255 0 106 
3.706 0.299 0.965 76 255 0 108 
3.705 0.299 0.969 76 255 0 108 
3.705 0.299 0.974 89 255 0 111 
3.698 0.299 0.977 102 255 0 114 
3.696 0.299 0.981 93 255 0 112 
3.698 0.299 0.986 93 255 0 112 
3.702 0.299 0.991 63 255 0 105 
3.698 0.299 0.995 76 255 0 108 
3.692 0.299 0.998 85 255 0 110 
3.699 0.299 1.004 63 255 0 105 
3.696 0.299 1.008 72 255 0 107 
3.697 0.299 1.012 63 255 0 105 
3.698 0.299 1.017 51 255 0 102 
3.695 0.299 1.02 0 255 4 89 
3.693 0.298 1.024 0 255 17 86 
3.691 0.298 1.027 0 255 55 77 
3.688 0.297 1.031 0 255 93 68 
3.682 0.297 1.033 0 255 110 64 
3.681 0.296 1.037 0 255 110 64 
3.68 0.296 1.04 0 255 110 64 
3.679 0.296 1.044 0 255 110 64 
3.681 0.296 1.048 0 255 106 65 
3.68 0.295 1.052 0 255 119 62 
3.682 0.295 1.057 0 255 123 61 
3.678 0.294 1.059 0 255 119 62 
3.68 0.294 1.063 0 255 131 59 
3.681 0.294 1.067 0 255 127 60 
3.677 0.293 1.07 0 255 136 58 
3.681 0.293 1.074 0 255 131 59 
3.683 0.293 1.079 0 255 136 58 
3.674 0.292 1.079 0 255 136 58 
3.675 0.291 1.083 0 255 131 59 
3.675 0.291 1.087 0 255 136 58 
3.676 0.29 1.09 0 255 131 59 
3.671 0.29 1.092 0 255 140 57 
3.674 0.289 1.096 0 255 144 56 
3.675 0.289 1.1 0 255 148 55 
3.673 0.288 1.102 0 255 144 56 
3.677 0.288 1.107 0 255 165 51 
3.666 0.286 1.106 0 255 165 51 
3.673 0.286 1.112 0 255 187 46 
3.674 0.285 1.115 0 255 191 45 
3.662 0.284 1.114 0 255 246 32 
3.66 0.283 1.117 0 221 255 26 
3.672 0.283 1.123 0 170 255 20 
3.669 0.282 1.125 0 110 255 13 
3.668 0.281 1.127 0 68 255 8 
3.638 0.124 1.117 0 8 255 1 
3.668 0.121 1.12 0 51 255 6 
3.681 0.12 1.122 0 102 255 12 
3.668 0.117 1.115 0 178 255 21 
3.67 0.115 1.112 0 255 255 30 
3.667 0.113 1.108 0 255 233 35 
3.677 0.112 1.108 0 255 187 46 
3.675 0.11 1.105 0 255 161 52 
3.677 0.108 1.102 0 255 165 51 
3.683 0.106 1.1 0 255 178 48 
3.676 0.104 1.095 0 255 170 50 
3.667 0.102 1.089 0 255 216 39 
3.679 0.101 1.089 0 255 170 50 
3.682 0.099 1.087 0 255 165 51 
3.678 0.097 1.082 0 255 170 50 
3.683 0.095 1.08 0 255 161 52 
3.684 0.093 1.077 0 255 161 52 
3.682 0.091 1.072 0 255 153 54 
3.683 0.09 1.069 0 255 153 54 
3.687 0.088 1.066 0 255 131 59 
3.685 0.086 1.062 0 255 123 61 
3.685 0.084 1.058 0 255 114 63 
3.686 0.082 1.054 0 255 114 63 
3.687 0.08 1.051 0 255 114 63 
3.685 0.078 1.046 0 255 106 65 
3.689 0.077 1.044 0 255 93 68 
3.689 0.075 1.04 0 255 89 69 
3.688 0.073 1.035 0 255 68 74 
3.691 0.071 1.032 0 255 76 72 
3.691 0.069 1.028 0 255 63 75 
3.699 0.068 1.026 0 255 46 79 
3.697 0.066 1.021 0 255 0 90 
3.702 0.064 1.018 17 255 0 94 
3.701 0.062 1.013 34 255 0 98 
3.703 0.06 1.01 63 255 0 105 
3.698 0.059 1.004 59 255 0 104 
3.711 0.057 1.003 63 255 0 105 
3.709 0.055 0.998 63 255 0 105 
3.707 0.053 0.993 63 255 0 105 
3.71 0.052 0.989 68 255 0 106 
3.71 0.05 0.984 63 255 0 105 
3.712 0.048 0.98 55 255 0 103 
3.715 0.046 0.976 63 255 0 105 
3.708 0.044 0.97 85 255 0 110 
3.71 0.043 0.965 85 255 0 110 
3.717 0.041 0.962 68 255 0 106 
3.718 0.039 0.957 68 255 0 106 
3.713 0.037 0.951 85 255 0 110 
3.712 0.036 0.946 68 255 0 106 
3.713 0.034 0.941 68 255 0 106 
3.713 0.032 0.936 59 255 0 104 
3.711 0.03 0.931 29 255 0 97 
3.717 0.029 0.927 25 255 0 96 
3.717 0.027 0.922 4 255 0 91 
3.718 0.025 0.917 4 255 0 91 
3.719 0.024 0.912 4 255 0 91 
3.722 0.022 0.907 25 255 0 96 
3.721 0.02 0.901 17 255 0 94 
3.718 0.019 0.895 38 255 0 99 
3.724 0.017 0.891 59 255 0 104 
3.734 0.016 0.888 63 255 0 105 
3.728 0.014 0.881 68 255 0 106 
3.728 0.012 0.876 76 255 0 108 
3.729 0.011 0.87 76 255 0 108 
3.727 0.009 0.864 102 255 0 114 
3.732 0.008 0.86 136 255 0 122 
3.735 0.006 0.855 144 255 0 124 
3.737 0.004 0.849 114 255 0 117 
3.737 0.003 0.844 102 255 0 114 
3.74 0.001 0.838 93 255 0 112 
3.739 0 0.832 68 255 0 106 
3.734 -0.001 0.825 38 255 0 99 
3.738 -0.002 0.82 8 255 0 92 
3.735 -0.004 0.813 25 255 0 96 
3.732 -0.005 0.807 4 255 0 91 
3.733 -0.007 0.801 4 255 0 91 
3.73 -0.008 0.794 21 255 0 95 
3.731 -0.01 0.789 21 255 0 95 
3.741 -0.011 0.785 25 255 0 96 
3.738 -0.012 0.778 4 255 0 91 
3.735 -0.014 0.771 21 255 0 95 
3.736 -0.015 0.765 21 255 0 95 
3.742 -0.017 0.76 4 255 0 91 
3.738 -0.018 0.753 21 255 0 95 
3.74 -0.019 0.747 21 255 0 95 
3.741 -0.021 0.74 21 255 0 95 
3.742 -0.022 0.734 21 255 0 95 
3.758 -0.023 0.731 12 255 0 93 
3.751 -0.024 0.723 0 255 0 90 
3.756 -0.026 0.718 38 255 0 99 
3.762 -0.027 0.712 76 255 0 108 
3.76 -0.028 0.705 102 255 0 114 
3.768 -0.03 0.7 93 255 0 112 
3.772 -0.031 0.694 93 255 0 112 
3.767 -0.032 0.687 76 255 0 108 
3.764 -0.033 0.68 102 255 0 114 
3.769 -0.034 0.674 76 255 0 108 
3.773 -0.035 0.668 102 255 0 114 
3.775 -0.037 0.661 93 255 0 112 
3.776 -0.038 0.655 93 255 0 112 
3.779 -0.039 0.648 102 255 0 114 
3.778 -0.04 0.641 93 255 0 112 
3.778 -0.041 0.634 102 255 0 114 
3.775 -0.042 0.627 68 255 0 106 
3.777 -0.043 0.62 8 255 0 92 
3.779 -0.044 0.614 0 255 4 89 
3.775 -0.045 0.606 0 255 21 85 
3.785 -0.046 0.6 0 255 21 85 
3.78 -0.047 0.593 0 255 34 82 
3.782 -0.048 0.586 0 255 51 78 
3.785 -0.049 0.579 0 255 63 75 
3.785 -0.049 0.572 0 255 68 74 
3.787 -0.05 0.565 0 255 72 73 
3.789 -0.051 0.558 0 255 97 67 
3.791 -0.052 0.551 0 255 106 65 
3.793 -0.053 0.544 0 255 110 64 
3.796 -0.054 0.537 0 255 114 63 
3.797 -0.054 0.53 0 255 144 56 
8.821 -0.149 0.41 0 144 255 17 
3.787 0.031 0.53 0 255 229 36 
3.793 0.031 0.538 0 255 93 68 
3.789 0.031 0.545 0 255 46 79 
3.792 0.032 0.553 0 255 21 85 
3.792 0.032 0.56 0 255 12 87 
3.786 0.031 0.566 0 255 4 89 
3.786 0.032 0.573 4 255 0 91 
3.78 0.031 0.58 0 255 8 88 
3.783 0.031 0.587 0 255 0 90 
3.778 0.031 0.594 0 255 8 88 
3.777 0.031 0.601 0 255 8 88 
3.773 0.031 0.607 4 255 0 91 
3.775 0.031 0.615 38 255 0 99 
3.772 0.031 0.621 42 255 0 100 
3.78 0.031 0.63 93 255 0 112 
3.775 0.03 0.636 85 255 0 110 
3.769 0.03 0.642 93 255 0 112 
3.777 0.03 0.65 93 255 0 112 
3.773 0.029 0.657 136 255 0 122 
3.765 0.029 0.662 80 255 0 109 
3.773 0.029 0.67 114 255 0 117 
3.768 0.028 0.676 123 255 0 119 
3.764 0.028 0.683 102 255 0 114 
3.763 0.028 0.689 102 255 0 114 
3.764 0.027 0.696 123 255 0 119 
3.761 0.027 0.702 131 255 0 121 
3.762 0.026 0.709 123 255 0 119 
3.752 0.026 0.714 63 255 0 105 
3.753 0.025 0.721 51 255 0 102 
3.745 0.025 0.726 42 255 0 100 
3.743 0.024 0.732 42 255 0 100 
3.742 0.024 0.739 42 255 0 100 
3.744 0.023 0.745 29 255 0 97 
3.743 0.023 0.752 29 255 0 97 
3.737 0.022 0.757 34 255 0 98 
3.741 0.021 0.764 21 255 0 95 
3.74 0.021 0.77 21 255 0 95 
3.741 0.02 0.777 12 255 0 93 
3.739 0.019 0.783 12 255 0 93 
3.735 0.019 0.788 29 255 0 97 
3.734 0.018 0.794 29 255 0 97 
3.734 0.017 0.8 21 255 0 95 
3.732 0.016 0.806 21 255 0 95 
3.733 0.016 0.813 12 255 0 93 
3.736 0.015 0.819 38 255 0 99 
3.736 0.014 0.826 76 255 0 108 
3.737 0.013 0.832 123 255 0 119 
3.741 0.013 0.839 123 255 0 119 
3.734 0.012 0.843 144 255 0 124 
3.731 0.011 0.849 157 255 0 127 
3.733 0.01 0.855 157 255 0 127 
3.73 0.009 0.86 174 255 0 131 
3.73 0.008 0.866 157 255 0 127 
3.732 0.007 0.872 114 255 0 117 
3.728 0.006 0.877 136 255 0 122 
3.731 0.005 0.884 102 255 0 114 
3.73 0.004 0.889 123 255 0 119 
3.729 0.003 0.895 102 255 0 114 
3.727 0.002 0.9 102 255 0 114 
3.724 0.001 0.905 93 255 0 112 
3.726 0 0.911 93 255 0 112 
3.719 0 0.914 59 255 0 104 
3.716 -0.001 0.919 0 255 0 90 
3.713 -0.002 0.924 4 255 0 91 
3.709 -0.003 0.928 0 255 21 85 
3.713 -0.004 0.935 0 255 4 89 
3.713 -0.005 0.94 0 255 12 87 
3.712 -0.006 0.945 0 255 12 87 
3.704 -0.007 0.948 0 255 21 85 
3.709 -0.009 0.955 0 255 25 84 
3.711 -0.01 0.96 0 255 25 84 
3.705 -0.011 0.964 0 255 46 79 
3.704 -0.012 0.969 0 255 46 79 
3.705 -0.013 0.974 0 255 55 77 
3.705 -0.015 0.979 0 255 63 75 
3.7 -0.016 0.983 0 255 46 79 
3.702 -0.017 0.988 0 255 55 77 
3.701 -0.018 0.993 0 255 68 74 
3.7 -0.019 0.997 0 255 63 75 
3.698 -0.021 1.002 0 255 68 74 
3.698 -0.022 1.006 0 255 63 75 
3.697 -0.023 1.011 0 255 63 75 
3.702 -0.025 1.017 0 255 38 81 
3.7 -0.026 1.021 4 255 0 91 
3.704 -0.027 1.026 34 255 0 98 
3.704 -0.029 1.031 55 255 0 103 
3.699 -0.03 1.034 76 255 0 108 
3.699 -0.031 1.039 72 255 0 107 
3.703 -0.033 1.044 80 255 0 109 
3.696 -0.034 1.046 76 255 0 108 
3.692 -0.035 1.05 93 255 0 112 
3.697 -0.037 1.055 97 255 0 113 
3.696 -0.038 1.059 72 255 0 107 
3.692 -0.039 1.062 89 255 0 111 
3.693 -0.041 1.067 63 255 0 105 
3.696 -0.042 1.072 89 255 0 111 
3.691 -0.044 1.074 80 255 0 109 
3.695 -0.045 1.079 80 255 0 109 
3.694 -0.046 1.083 80 255 0 109 
3.693 -0.048 1.086 80 255 0 109 
3.691 -0.049 1.09 72 255 0 107 
3.692 -0.051 1.094 72 255 0 107 
3.691 -0.052 1.097 72 255 0 107 
3.69 -0.054 1.101 72 255 0 107 
3.689 -0.055 1.104 72 255 0 107 
3.683 -0.057 1.106 55 255 0 103 
3.688 -0.058 1.111 21 255 0 95 
3.687 -0.06 1.114 0 255 4 89 
3.69 -0.061 1.119 0 255 85 70 
3.69 -0.063 1.122 0 255 178 48 
3.669 -0.243 1.119 0 25 255 3 
3.696 -0.247 1.117 0 255 131 59 
3.696 -0.248 1.114 0 255 42 80 
3.692 -0.249 1.109 17 255 0 94 
3.691 -0.25 1.105 21 255 0 95 
3.696 -0.251 1.103 46 255 0 101 
3.69 -0.251 1.097 38 255 0 99 
3.7 -0.253 1.097 55 255 0 103 
3.699 -0.253 1.092 46 255 0 101 
3.694 -0.254 1.087 29 255 0 97 
3.703 -0.255 1.086 55 255 0 103 
3.696 -0.255 1.08 29 255 0 97 
3.699 -0.256 1.077 21 255 0 95 
3.706 -0.257 1.075 55 255 0 103 
3.697 -0.257 1.068 42 255 0 100 
3.703 -0.258 1.066 46 255 0 101 
3.701 -0.259 1.061 38 255 0 99 
3.708 -0.26 1.059 46 255 0 101 
3.706 -0.261 1.054 46 255 0 101 
3.705 -0.261 1.05 29 255 0 97 
3.711 -0.262 1.047 51 255 0 102 
3.706 -0.262 1.041 38 255 0 99 
3.705 -0.263 1.037 42 255 0 100 
3.714 -0.264 1.035 38 255 0 99 
3.707 -0.264 1.029 12 255 0 93 
3.708 -0.264 1.024 0 255 4 89 
3.717 -0.265 1.022 0 255 25 84 
3.713 -0.266 1.016 0 255 89 69 
3.713 -0.266 1.012 0 255 170 50 
3.711 -0.266 1.007 0 255 199 43 
3.705 -0.266 1 0 255 212 40 
3.711 -0.267 0.997 0 255 204 42 
3.696 -0.266 0.988 0 255 233 35 
3.714 -0.268 0.988 0 255 204 42 
3.699 -0.267 0.979 0 255 233 35 
3.716 -0.269 0.979 0 255 204 42 
3.701 -0.268 0.97 0 255 233 35 
3.705 -0.268 0.966 0 255 238 34 
3.718 -0.27 0.964 0 255 221 38 
3.707 -0.269 0.957 0 255 246 32 
3.714 -0.27 0.953 0 255 250 31 
3.716 -0.27 0.949 0 255 255 30 
3.719 -0.271 0.944 0 246 255 29 
3.716 -0.27 0.938 0 255 250 31 
3.716 -0.271 0.933 0 255 250 31 
3.716 -0.271 0.928 0 255 242 33 
3.726 -0.272 0.925 0 255 195 44 
3.728 -0.272 0.92 0 255 136 58 
3.73 -0.272 0.915 0 255 46 79 
3.737 -0.272 0.911 0 255 4 89 
3.733 -0.272 0.905 29 255 0 97 
3.739 -0.273 0.901 38 255 0 99 
3.734 -0.272 0.894 34 255 0 98 
3.738 -0.273 0.889 17 255 0 94 
3.741 -0.273 0.884 29 255 0 97 
3.738 -0.272 0.878 17 255 0 94 
3.742 -0.273 0.873 21 255 0 95 
3.743 -0.273 0.868 21 255 0 95 
3.742 -0.272 0.861 21 255 0 95 
3.746 -0.272 0.857 21 255 0 95 
3.747 -0.272 0.851 21 255 0 95 
3.747 -0.272 0.845 29 255 0 97 
3.743 -0.271 0.838 42 255 0 100 
3.748 -0.272 0.834 34 255 0 98 
3.752 -0.272 0.829 21 255 0 95 
3.75 -0.271 0.822 0 255 0 90 
3.746 -0.27 0.815 0 255 102 66 
3.752 -0.27 0.81 0 255 187 46 
3.735 -0.269 0.801 0 255 229 36 
3.738 -0.269 0.795 0 255 225 37 
3.74 -0.268 0.789 0 255 225 37 
3.753 -0.269 0.786 0 255 204 42 
3.758 -0.269 0.781 0 255 191 45 
3.741 -0.267 0.771 0 255 221 38 
3.755 -0.268 0.768 0 255 187 46 
3.763 -0.268 0.763 0 255 187 46 
3.745 -0.266 0.753 0 255 221 38 
