3.77200007 0.32000002 0.60900003 123 255 0 119.000000
3.77300024 0.32200003 0.61600006 102 255 0 114.000000
3.76900029 0.32400000 0.62200004 0 255 8 88.000000
3.77000022 0.32600001 0.62800002 0 255 21 85.000000
3.76600027 0.32800001 0.63400000 0 255 25 84.000000
3.76000023 0.33000001 0.63900006 0 255 46 79.000000
3.75900006 0.33200002 0.64500004 0 255 46 79.000000
3.75800014 0.33400002 0.65100002 0 255 46 79.000000
3.76500010 0.33700001 0.65900004 0 255 34 82.000000
3.76100016 0.33800003 0.66400003 25 255 0 96.000000
3.76500010 0.34100002 0.67100000 8 255 0 92.000000
3.76300025 0.34300002 0.67600006 63 255 0 105.000000
3.75900006 0.34400001 0.68200004 93 255 0 112.000000
3.75700021 0.34600002 0.68800002 93 255 0 112.000000
3.75500011 0.34800002 0.69300002 123 255 0 119.000000
3.75500011 0.35000002 0.69900006 114 255 0 117.000000
3.75400019 0.35100001 0.70500004 114 255 0 117.000000
3.75200009 0.35300002 0.71100003 114 255 0 117.000000
3.75200009 0.35500002 0.71700001 85 255 0 110.000000
3.75400019 0.35700002 0.72300005 8 255 0 92.000000
3.74900007 0.35800001 0.72800004 0 255 21 85.000000
3.74300027 0.35900003 0.73300004 0 255 68 74.000000
3.74200010 0.36100003 0.73900002 0 255 68 74.000000
3.74100018 0.36200002 0.74400002 0 255 68 74.000000
3.74100018 0.36400002 0.75000006 0 255 63 75.000000
3.73900008 0.36600003 0.75500005 0 255 63 75.000000
3.73500013 0.36700001 0.76000005 0 255 63 75.000000
3.73600006 0.36800003 0.76600003 0 255 68 74.000000
3.73600006 0.37000000 0.77200001 0 255 63 75.000000
3.73300028 0.37100002 0.77700001 0 255 68 74.000000
3.73300028 0.37200001 0.78200006 0 255 63 75.000000
3.73200011 0.37400001 0.78800005 0 255 63 75.000000
3.73100019 0.37500003 0.79300004 0 255 63 75.000000
3.72600007 0.37600002 0.79800004 0 255 72 73.000000
3.72900009 0.37800002 0.80400002 0 255 89 69.000000
3.72800016 0.37900001 0.80900002 0 255 76 72.000000
3.72300029 0.38000003 0.81400001 0 255 72 73.000000
3.72900009 0.38100001 0.82000005 0 255 34 82.000000
3.72500014 0.38200003 0.82500005 25 255 0 96.000000
3.73300028 0.38400000 0.83200002 46 255 0 101.000000
3.73300028 0.38500002 0.83700001 72 255 0 107.000000
3.72500014 0.38600001 0.84100002 93 255 0 112.000000
3.72400022 0.38700002 0.84600002 114 255 0 117.000000
3.72100019 0.38700002 0.85000002 102 255 0 114.000000
3.72500014 0.38900003 0.85700005 89 255 0 111.000000
3.72900009 0.39100003 0.86300004 80 255 0 109.000000
3.72500014 0.39100003 0.86700004 80 255 0 109.000000
3.71600008 0.39100003 0.87000006 102 255 0 114.000000
3.72500014 0.39300001 0.87700003 80 255 0 109.000000
3.72100019 0.39400002 0.88100004 97 255 0 113.000000
3.71700025 0.39400002 0.88500005 76 255 0 108.000000
3.72000027 0.39500001 0.89100003 72 255 0 107.000000
3.71800017 0.39600003 0.89500004 63 255 0 105.000000
3.71800017 0.39700001 0.90000004 63 255 0 105.000000
3.71500015 0.39700001 0.90500003 63 255 0 105.000000
3.71600008 0.39800003 0.91000003 63 255 0 105.000000
3.71400023 0.39800003 0.91400003 55 255 0 103.000000
3.71300006 0.39900002 0.91800004 42 255 0 100.000000
3.70600009 0.39900002 0.92100006 0 255 0 90.000000
3.70500016 0.39900002 0.92600006 0 255 38 81.000000
3.70900011 0.40000001 0.93200004 0 255 89 69.000000
3.70100021 0.40000001 0.93400002 0 255 119 62.000000
3.70000029 0.40100002 0.93900007 0 255 119 62.000000
3.69900012 0.40100002 0.94300002 0 255 119 62.000000
3.69800019 0.40200001 0.94700003 0 255 119 62.000000
3.69900012 0.40200001 0.95200002 0 255 127 60.000000
3.70100021 0.40300003 0.95700002 0 255 127 60.000000
3.69700027 0.40300003 0.96000004 0 255 136 58.000000
3.69500017 0.40300003 0.96400005 0 255 136 58.000000
3.69700027 0.40400001 0.96900004 0 255 136 58.000000
3.69600010 0.40400001 0.97300005 0 255 136 58.000000
3.69600010 0.40400001 0.97700006 0 255 148 55.000000
3.69600010 0.40500003 0.98100007 0 255 144 56.000000
3.69700027 0.40500003 0.98600006 0 255 148 55.000000
3.69400024 0.40500003 0.98900002 0 255 153 54.000000
3.69500017 0.40500003 0.99300003 0 255 148 55.000000
3.68900013 0.40500003 0.99600005 0 255 153 54.000000
3.69000006 0.40500003 1.00000000 0 255 148 55.000000
3.68500018 0.40500003 1.00300002 0 255 165 51.000000
3.68900013 0.40500003 1.00800002 0 255 153 54.000000
3.69300008 0.40600002 1.01300001 0 255 165 51.000000
3.68700027 0.40500003 1.01500010 0 255 153 54.000000
3.68700027 0.40500003 1.01900005 0 255 127 60.000000
3.69200015 0.40600002 1.02400005 0 255 68 74.000000
3.69300008 0.40600002 1.02800000 0 255 21 85.000000
3.68800020 0.40500003 1.03000009 8 255 0 92.000000
3.68900013 0.40600002 1.03400004 21 255 0 95.000000
3.69200015 0.40600002 1.03800011 42 255 0 100.000000
3.69100022 0.40600002 1.04200006 42 255 0 100.000000
3.68900013 0.40500003 1.04500008 51 255 0 102.000000
3.68700027 0.40500003 1.04800010 46 255 0 101.000000
3.68700027 0.40500003 1.05100000 51 255 0 102.000000
3.68500018 0.40400001 1.05400002 59 255 0 104.000000
3.68500018 0.40400001 1.05700004 51 255 0 102.000000
3.68400025 0.40400001 1.06000006 59 255 0 104.000000
3.68500018 0.40400001 1.06400001 42 255 0 100.000000
3.68300009 0.40300003 1.06600010 51 255 0 102.000000
3.68400025 0.40300003 1.07000005 72 255 0 107.000000
3.68600011 0.40300003 1.07300007 93 255 0 112.000000
3.67700028 0.40200001 1.07400000 72 255 0 107.000000
3.67600012 0.40100002 1.07600009 72 255 0 107.000000
3.68500018 0.40200001 1.08200002 68 255 0 106.000000
3.68400025 0.40100002 1.08500004 68 255 0 106.000000
3.67800021 0.40000001 1.08600008 51 255 0 102.000000
3.67800021 0.40000001 1.08900011 42 255 0 100.000000
3.68100023 0.40000001 1.09200001 59 255 0 104.000000
3.67600012 0.39800003 1.09400010 42 255 0 100.000000
3.68000007 0.39800003 1.09700000 59 255 0 104.000000
3.67500019 0.39700001 1.09900010 42 255 0 100.000000
3.67300010 0.39700001 1.10100007 38 255 0 99.000000
3.67900014 0.39700001 1.10500002 51 255 0 102.000000
3.67300010 0.39500001 1.10600007 42 255 0 100.000000
3.67600012 0.39500001 1.10900009 59 255 0 104.000000
3.67200017 0.39400002 1.11000001 42 255 0 100.000000
3.67100024 0.39300001 1.11300004 42 255 0 100.000000
3.67600012 0.39300001 1.11600006 21 255 0 95.000000
3.67400026 0.39200002 1.11800003 17 255 0 94.000000
3.67200017 0.39100003 1.11900008 0 255 29 83.000000
3.67600012 0.39100003 1.12300003 0 255 63 75.000000
3.68100023 0.39100003 1.12700009 0 255 131 59.000000
3.67800021 0.38900003 1.12800002 0 255 174 49.000000
3.67900014 0.38900003 1.13000000 0 255 233 35.000000
3.66900015 0.26700002 1.12800002 0 59 255 7.000000
3.66500020 0.26500002 1.12500000 0 85 255 10.000000
3.67100024 0.26300001 1.12500000 0 136 255 16.000000
3.66000009 0.26000002 1.11900008 0 178 255 21.000000
3.66900015 0.25900000 1.12000000 0 221 255 26.000000
3.66500020 0.25600001 1.11700010 0 255 246 32.000000
3.65600014 0.25400001 1.11100006 0 255 229 36.000000
3.67300010 0.25300002 1.11400008 0 255 187 46.000000
3.67300010 0.25100002 1.11200011 0 255 178 48.000000
3.66900015 0.24800001 1.10800004 0 255 165 51.000000
3.67400026 0.24600001 1.10699999 0 255 153 54.000000
3.67700028 0.24500000 1.10600007 0 255 148 55.000000
3.66700006 0.24200001 1.10000002 0 255 153 54.000000
3.67400026 0.24000001 1.10000002 0 255 153 54.000000
3.67800021 0.23800001 1.09800005 0 255 153 54.000000
3.67800021 0.23600002 1.09600008 0 255 153 54.000000
3.67000008 0.23300001 1.09000003 0 255 157 53.000000
3.67800021 0.23200001 1.09000003 0 255 136 58.000000
3.68000007 0.23000000 1.08800006 0 255 119 62.000000
3.68100023 0.22700001 1.08500004 0 255 59 76.000000
3.68000007 0.22500001 1.08200002 0 255 25 84.000000
3.68600011 0.22300000 1.08000004 8 255 0 92.000000
3.69000006 0.22100002 1.07800007 29 255 0 97.000000
3.68600011 0.21900001 1.07400000 42 255 0 100.000000
3.68800020 0.21700001 1.07200003 51 255 0 102.000000
3.68900013 0.21500000 1.06900001 51 255 0 102.000000
3.69000006 0.21300001 1.06600010 51 255 0 102.000000
3.68800020 0.21000001 1.06200004 46 255 0 101.000000
3.69200015 0.20800000 1.06000006 51 255 0 102.000000
3.69300008 0.20600002 1.05599999 51 255 0 102.000000
3.68900013 0.20400001 1.05200005 76 255 0 108.000000
3.69500017 0.20200001 1.05000007 51 255 0 102.000000
3.69500017 0.20000000 1.04700005 55 255 0 103.000000
3.69300008 0.19700001 1.04300010 72 255 0 107.000000
3.69800019 0.19500001 1.04000008 51 255 0 102.000000
3.69600010 0.19300000 1.03600001 46 255 0 101.000000
3.69400024 0.19000001 1.03200006 17 255 0 94.000000
3.69400024 0.18800001 1.02800000 0 255 0 90.000000
3.69500017 0.18600000 1.02500010 0 255 12 87.000000
3.69500017 0.18400002 1.02100003 0 255 46 79.000000
3.68800020 0.18100001 1.01500010 0 255 72 73.000000
3.68900013 0.17900001 1.01100004 0 255 72 73.000000
3.69200015 0.17700000 1.00800002 0 255 68 74.000000
3.69100022 0.17500001 1.00400007 0 255 72 73.000000
3.69100022 0.17200001 1.00000000 0 255 80 71.000000
3.69500017 0.17000000 0.99700004 0 255 68 74.000000
3.69800019 0.16800001 0.99300003 0 255 63 75.000000
3.69000006 0.16600001 0.98700005 0 255 63 75.000000
3.69700027 0.16400000 0.98500007 0 255 63 75.000000
3.70100021 0.16200000 0.98100007 0 255 63 75.000000
3.69500017 0.15900001 0.97600007 0 255 59 76.000000
3.69900012 0.15700001 0.97200006 0 255 51 78.000000
3.70100021 0.15500000 0.96800005 0 255 46 79.000000
3.69400024 0.15200001 0.96200007 0 255 34 82.000000
3.70000029 0.15000001 0.95900005 0 255 46 79.000000
3.69900012 0.14800000 0.95400006 0 255 21 85.000000
3.69900012 0.14600001 0.94900006 0 255 29 83.000000
3.70900011 0.14400001 0.94700003 0 255 12 87.000000
3.69800019 0.14100000 0.94000006 0 255 29 83.000000
3.70400023 0.13900001 0.93700004 0 255 21 85.000000
3.70500016 0.13700001 0.93200004 0 255 21 85.000000
3.71100020 0.13500001 0.92900002 0 255 4 89.000000
3.71000028 0.13300000 0.92400002 8 255 0 92.000000
3.71600008 0.13100001 0.92000002 0 255 8 88.000000
3.71200013 0.12800001 0.91500002 25 255 0 96.000000
3.71600008 0.12600000 0.91100007 12 255 0 93.000000
3.71600008 0.12400001 0.90500003 4 255 0 91.000000
3.71600008 0.12200001 0.90000004 8 255 0 92.000000
3.71000028 0.11900000 0.89400005 4 255 0 91.000000
3.70700026 0.11700001 0.88800007 21 255 0 95.000000
3.70800018 0.11500000 0.88300002 21 255 0 95.000000
3.70900011 0.11300001 0.87800002 21 255 0 95.000000
3.71500015 0.11100001 0.87500006 4 255 0 91.000000
3.71800017 0.10900000 0.87000006 12 255 0 93.000000
3.71800017 0.10700001 0.86500007 4 255 0 91.000000
3.72100019 0.10400000 0.86000001 12 255 0 93.000000
3.71900010 0.10200001 0.85400003 12 255 0 93.000000
3.71500015 0.10000000 0.84700006 0 255 4 89.000000
3.72300029 0.09800000 0.84400004 21 255 0 95.000000
3.72100019 0.09600000 0.83800006 21 255 0 95.000000
3.72400022 0.09400000 0.83300006 12 255 0 93.000000
3.72500014 0.09200001 0.82800007 29 255 0 97.000000
3.73000026 0.09000000 0.82300001 42 255 0 100.000000
3.73400021 0.08800001 0.81800002 93 255 0 112.000000
3.74300027 0.08600000 0.81400001 144 255 0 124.000000
3.73800015 0.08400001 0.80800003 144 255 0 124.000000
3.73400021 0.08100000 0.80100006 238 255 0 146.000000
3.73700023 0.07900000 0.79600006 255 252 0 150.000000
3.73600006 0.07700001 0.79000002 255 252 0 150.000000
3.73400021 0.07500000 0.78400004 255 252 0 150.000000
3.73900008 0.07300001 0.77800006 255 252 0 150.000000
3.73200011 0.07100000 0.77100003 255 252 0 150.000000
3.73100019 0.06900001 0.76500005 255 247 0 152.000000
3.73300028 0.06700000 0.76000005 255 247 0 152.000000
3.73600006 0.06500001 0.75400001 255 250 0 151.000000
3.74800014 0.06300000 0.75000006 255 252 0 150.000000
3.75500011 0.06100000 0.74500006 174 255 0 131.000000
3.75300026 0.05900000 0.73900002 144 255 0 124.000000
3.75800014 0.05800000 0.73400003 136 255 0 122.000000
3.74900007 0.05500000 0.72600001 63 255 0 105.000000
3.75200009 0.05400000 0.72000003 42 255 0 100.000000
3.74800014 0.05200000 0.71300006 21 255 0 95.000000
3.75200009 0.05000000 0.70700002 21 255 0 95.000000
3.75200009 0.04800000 0.70100003 0 255 4 89.000000
3.75400019 0.04600000 0.69500005 4 255 0 91.000000
3.75000024 0.04400000 0.68800002 0 255 12 87.000000
3.75200009 0.04200000 0.68100005 21 255 0 95.000000
3.75300026 0.04000000 0.67500001 21 255 0 95.000000
3.75900006 0.03900000 0.67000002 4 255 0 91.000000
3.75300026 0.03700000 0.66200006 0 255 4 89.000000
3.76300025 0.03500000 0.65700001 12 255 0 93.000000
3.76400018 0.03300000 0.65100002 12 255 0 93.000000
3.77000022 0.03100000 0.64500004 0 255 8 88.000000
3.77100015 0.03000000 0.63800001 38 255 0 99.000000
3.76900029 0.02800000 0.63100004 34 255 0 98.000000
3.77200007 0.02600000 0.62500000 29 255 0 97.000000
3.77700019 0.02500000 0.61900002 8 255 0 92.000000
3.77500010 0.02300000 0.61200005 17 255 0 94.000000
3.77000022 0.02100000 0.60400003 4 255 0 91.000000
3.77600026 0.02000000 0.59800005 0 255 21 85.000000
3.77700019 0.01800000 0.59200001 0 255 21 85.000000
3.77800012 0.01600000 0.58500004 0 255 21 85.000000
3.78300023 0.01500000 0.57900006 0 255 38 81.000000
3.78400016 0.01300000 0.57200003 0 255 51 78.000000
3.78500009 0.01100000 0.56500000 0 255 80 71.000000
3.79000020 0.01000000 0.55900002 0 255 106 65.000000
3.78900027 0.00800000 0.55200005 0 255 127 60.000000
3.78900027 0.00700000 0.54400003 0 255 123 61.000000
3.78800011 0.00500000 0.53700000 0 255 153 54.000000
3.79000020 0.00400000 0.53000003 0 238 255 28.000000
8.68600082 0.05300000 0.39400002 0 161 255 19.000000
9.14900017 0.06600000 0.45200002 0 161 255 19.000000
3.79100013 0.09500001 0.52700001 0 255 225 37.000000
3.79500008 0.09600000 0.53500003 0 255 8 88.000000
3.79000020 0.09700000 0.54200006 157 255 0 127.000000
3.78900027 0.09800000 0.54900002 187 255 0 134.000000
3.79100013 0.09900001 0.55600005 221 255 0 142.000000
3.78800011 0.09900001 0.56300002 204 255 0 138.000000
3.78400016 0.10000000 0.57000005 204 255 0 138.000000
3.78400016 0.10100000 0.57700002 187 255 0 134.000000
3.78300023 0.10200001 0.58400005 157 255 0 127.000000
3.78100014 0.10200001 0.59100002 174 255 0 131.000000
3.78300023 0.10300001 0.59800005 174 255 0 131.000000
3.77900028 0.10300001 0.60400003 174 255 0 131.000000
3.77200007 0.10400000 0.61000001 119 255 0 118.000000
3.77700019 0.10500000 0.61800003 85 255 0 110.000000
3.76900029 0.10500000 0.62400001 34 255 0 98.000000
3.76500010 0.10500000 0.63000005 4 255 0 91.000000
3.76300025 0.10600001 0.63700002 4 255 0 91.000000
3.76100016 0.10600001 0.64300001 0 255 4 89.000000
3.76300025 0.10700001 0.65000004 12 255 0 93.000000
3.76000023 0.10700001 0.65700001 21 255 0 95.000000
3.75800014 0.10700001 0.66300005 29 255 0 97.000000
3.75700021 0.10800000 0.67000002 29 255 0 97.000000
3.75300026 0.10800000 0.67600006 42 255 0 100.000000
3.75100017 0.10800000 0.68200004 42 255 0 100.000000
3.74900007 0.10900000 0.68900001 34 255 0 98.000000
3.74900007 0.10900000 0.69500005 42 255 0 100.000000
3.74700022 0.10900000 0.70100003 46 255 0 101.000000
3.74900007 0.11000001 0.70900005 55 255 0 103.000000
3.74700022 0.11000001 0.71500003 63 255 0 105.000000
3.74500012 0.11000001 0.72100002 182 255 0 133.000000
3.74800014 0.11000001 0.72800004 255 252 0 150.000000
3.74500012 0.11000001 0.73400003 255 252 0 150.000000
3.73900008 0.11000001 0.74000001 255 252 0 150.000000
3.74000025 0.11000001 0.74600005 255 250 0 151.000000
3.74700022 0.11100001 0.75400001 255 247 0 152.000000
3.72700024 0.11000001 0.75700003 255 247 0 152.000000
3.72800016 0.11000001 0.76300001 255 247 0 152.000000
3.74300027 0.11100001 0.77300006 255 247 0 152.000000
3.73100019 0.11000001 0.77600002 255 250 0 151.000000
3.73700023 0.11100001 0.78400004 255 252 0 150.000000
3.73800015 0.11000001 0.79100001 255 252 0 150.000000
3.73400021 0.11000001 0.79600006 255 252 0 150.000000
3.73500013 0.11000001 0.80200005 255 252 0 150.000000
3.74000025 0.11000001 0.81000006 174 255 0 131.000000
3.73100019 0.11000001 0.81400001 110 255 0 116.000000
3.72700024 0.11000001 0.81900007 72 255 0 107.000000
3.72600007 0.11000001 0.82500005 55 255 0 103.000000
3.72000027 0.10900000 0.83000004 34 255 0 98.000000
3.72000027 0.10900000 0.83600003 42 255 0 100.000000
3.71900010 0.10900000 0.84200007 42 255 0 100.000000
3.71700025 0.10800000 0.84700006 34 255 0 98.000000
3.71900010 0.10800000 0.85300004 29 255 0 97.000000
3.71800017 0.10800000 0.85900003 29 255 0 97.000000
3.71300006 0.10700001 0.86300004 34 255 0 98.000000
3.71500015 0.10700001 0.87000006 29 255 0 97.000000
3.71200013 0.10700001 0.87500006 21 255 0 95.000000
3.71100020 0.10600001 0.88000005 21 255 0 95.000000
3.71300006 0.10600001 0.88600004 21 255 0 95.000000
3.71100020 0.10600001 0.89200002 21 255 0 95.000000
3.71000028 0.10500000 0.89700001 21 255 0 95.000000
3.71100020 0.10500000 0.90300006 12 255 0 93.000000
3.70800018 0.10400000 0.90700006 4 255 0 91.000000
3.70900011 0.10400000 0.91300005 4 255 0 91.000000
3.71000028 0.10400000 0.91900003 29 255 0 97.000000
3.71400023 0.10300001 0.92600006 59 255 0 104.000000
3.71500015 0.10300001 0.93100005 102 255 0 114.000000
3.71500015 0.10200001 0.93600005 93 255 0 112.000000
3.71400023 0.10200001 0.94100004 93 255 0 112.000000
3.71200013 0.10100000 0.94600004 114 255 0 117.000000
3.71000028 0.10000000 0.95100003 102 255 0 114.000000
3.71100020 0.10000000 0.95600003 85 255 0 110.000000
3.71200013 0.09900001 0.96200007 102 255 0 114.000000
3.71000028 0.09800000 0.96700007 93 255 0 112.000000
3.70800018 0.09800000 0.97100008 102 255 0 114.000000
3.70900011 0.09700000 0.97600007 102 255 0 114.000000
3.70000029 0.09600000 0.97900003 85 255 0 110.000000
3.70400023 0.09600000 0.98500007 102 255 0 114.000000
3.70100021 0.09500001 0.98900002 93 255 0 112.000000
3.70200014 0.09400000 0.99400002 102 255 0 114.000000
3.70100021 0.09300000 0.99900007 102 255 0 114.000000
3.69800019 0.09300000 1.00300002 93 255 0 112.000000
3.69900012 0.09200001 1.00800002 93 255 0 112.000000
3.69800019 0.09100001 1.01200008 76 255 0 108.000000
3.69900012 0.09000000 1.01700008 17 255 0 94.000000
3.69500017 0.08900000 1.02100003 25 255 0 96.000000
3.69300008 0.08800001 1.02500010 0 255 25 84.000000
3.69100022 0.08700000 1.02800000 0 255 63 75.000000
3.68700027 0.08700000 1.03200006 0 255 72 73.000000
3.68700027 0.08600000 1.03700006 0 255 68 74.000000
3.68400025 0.08500000 1.04000008 0 255 72 73.000000
3.68400025 0.08400001 1.04400003 0 255 89 69.000000
3.68400025 0.08300000 1.04900002 0 255 93 68.000000
3.68500018 0.08200000 1.05300009 0 255 97 67.000000
3.68400025 0.08100000 1.05700004 0 255 97 67.000000
3.68400025 0.08000001 1.06100011 0 255 102 66.000000
3.68300009 0.07900000 1.06500006 0 255 114 63.000000
3.68200016 0.07800000 1.06900001 0 255 114 63.000000
3.68100023 0.07700001 1.07300007 0 255 119 62.000000
3.68100023 0.07600001 1.07700002 0 255 123 61.000000
3.67600012 0.07500000 1.07900000 0 255 136 58.000000
3.67800021 0.07400000 1.08400011 0 255 148 55.000000
3.67800021 0.07300001 1.08700001 0 255 153 54.000000
3.67800021 0.07200000 1.09100008 0 255 170 50.000000
3.68600011 0.07100000 1.09700000 0 255 187 46.000000
3.66900015 0.07000000 1.09600008 0 255 221 38.000000
3.66900015 0.06900001 1.10000002 0 255 225 37.000000
3.67000008 0.06800000 1.10400009 0 255 233 35.000000
3.67100024 0.06700000 1.10800004 0 246 255 29.000000
3.67100024 0.06600000 1.11100006 0 195 255 23.000000
3.67400026 0.06500001 1.11500001 0 136 255 16.000000
3.67000008 0.06300000 1.11800003 0 76 255 9.000000
3.64800024 -0.11600000 1.11600006 0 8 255 1.000000
3.68300009 -0.11900000 1.12000000 0 119 255 14.000000
3.67800021 -0.12000000 1.11500001 0 187 255 22.000000
3.67600012 -0.12100001 1.11100006 0 238 255 28.000000
3.66900015 -0.12200001 1.10500002 0 255 233 35.000000
3.67100024 -0.12400001 1.10200000 0 255 233 35.000000
3.67200017 -0.12500000 1.09900010 0 255 233 35.000000
3.67300010 -0.12600000 1.09600008 0 255 233 35.000000
3.67400026 -0.12700000 1.09200001 0 255 233 35.000000
3.67200017 -0.12800001 1.08800006 0 255 225 37.000000
3.67300010 -0.12900001 1.08400011 0 255 225 37.000000
3.67300010 -0.13000001 1.08000004 0 255 225 37.000000
3.68900013 -0.13200000 1.08100009 0 255 187 46.000000
3.68600011 -0.13300000 1.07600009 0 255 187 46.000000
3.69300008 -0.13400000 1.07400000 0 255 187 46.000000
3.68900013 -0.13500001 1.06900001 0 255 182 47.000000
3.69200015 -0.13600001 1.06600010 0 255 178 48.000000
3.69300008 -0.13800001 1.06200004 0 255 178 48.000000
3.69300008 -0.13900001 1.05800009 0 255 174 49.000000
3.69500017 -0.14000000 1.05400002 0 255 153 54.000000
3.68800020 -0.14000000 1.04800010 0 255 153 54.000000
3.69300008 -0.14200000 1.04500008 0 255 144 56.000000
3.69400024 -0.14300001 1.04100001 0 255 144 56.000000
3.69100022 -0.14400001 1.03600001 0 255 153 54.000000
3.70000029 -0.14500001 1.03400004 0 255 148 55.000000
3.69800019 -0.14600001 1.02900004 0 255 140 57.000000
3.69900012 -0.14700000 1.02400005 0 255 106 65.000000
3.70300007 -0.14800000 1.02100003 0 255 59 76.000000
3.70300007 -0.14900000 1.01600003 0 255 12 87.000000
3.70800018 -0.15000001 1.01300001 21 255 0 95.000000
3.71200013 -0.15100001 1.00900006 34 255 0 98.000000
3.71000028 -0.15200001 1.00400007 51 255 0 102.000000
3.71100020 -0.15200001 1.00000000 51 255 0 102.000000
3.71200013 -0.15300001 0.99500006 51 255 0 102.000000
3.70700026 -0.15400001 0.98900002 55 255 0 103.000000
3.71500015 -0.15500000 0.98600006 51 255 0 102.000000
3.71600008 -0.15600000 0.98100007 51 255 0 102.000000
3.71300006 -0.15700001 0.97500002 55 255 0 103.000000
3.71700025 -0.15800001 0.97100008 55 255 0 103.000000
3.71900010 -0.15800001 0.96700007 55 255 0 103.000000
3.72100019 -0.15900001 0.96200007 51 255 0 102.000000
3.71800017 -0.16000001 0.95600003 55 255 0 103.000000
3.72000027 -0.16100001 0.95200002 46 255 0 101.000000
3.72200012 -0.16200000 0.94700003 63 255 0 105.000000
3.72200012 -0.16200000 0.94100004 72 255 0 107.000000
3.72600007 -0.16300000 0.93700004 55 255 0 103.000000
3.72500014 -0.16400000 0.93200004 46 255 0 101.000000
3.72700024 -0.16400000 0.92700005 21 255 0 95.000000
3.72700024 -0.16500001 0.92100006 0 255 25 84.000000
3.72000027 -0.16500001 0.91400003 0 255 93 68.000000
3.72100019 -0.16600001 0.90900004 0 255 114 63.000000
3.72600007 -0.16700001 0.90400004 0 255 114 63.000000
3.72400022 -0.16700001 0.89800006 0 255 114 63.000000
3.72500014 -0.16800001 0.89300007 0 255 114 63.000000
3.72700024 -0.16800001 0.88800007 0 255 110 64.000000
3.72700024 -0.16900001 0.88200003 0 255 97 67.000000
3.72600007 -0.16900001 0.87600005 0 255 106 65.000000
3.73200011 -0.17000000 0.87200004 0 255 97 67.000000
3.73100019 -0.17000000 0.86600006 0 255 102 66.000000
3.73200011 -0.17100000 0.86000001 0 255 97 67.000000
3.73300028 -0.17100000 0.85400003 0 255 97 67.000000
3.73600006 -0.17200001 0.84900004 0 255 85 70.000000
3.73800015 -0.17200001 0.84400004 0 255 76 72.000000
3.74000025 -0.17300001 0.83800006 0 255 76 72.000000
3.73700023 -0.17300001 0.83100003 0 255 63 75.000000
3.74600029 -0.17400001 0.82700002 0 255 55 77.000000
3.74600029 -0.17400001 0.82100004 0 255 38 81.000000
3.74400020 -0.17400001 0.81500006 0 255 21 85.000000
3.74800014 -0.17500001 0.80900002 0 255 8 88.000000
3.74700022 -0.17500001 0.80300003 0 255 0 90.000000
3.75100017 -0.17500001 0.79800004 0 255 8 88.000000
3.75200009 -0.17600001 0.79100001 0 255 8 88.000000
3.75700021 -0.17600001 0.78600001 0 255 25 84.000000
3.75100017 -0.17600001 0.77900004 0 255 21 85.000000
3.75600028 -0.17600001 0.77300006 0 255 8 88.000000
3.75600028 -0.17600001 0.76700002 0 255 34 82.000000
3.75300026 -0.17600001 0.76000005 0 255 25 84.000000
3.75500011 -0.17700000 0.75400001 0 255 34 82.000000
3.76200008 -0.17700000 0.74900001 0 255 38 81.000000
3.75600028 -0.17700000 0.74100006 0 255 63 75.000000
3.76100016 -0.17700000 0.73500001 0 255 76 72.000000
3.75900006 -0.17700000 0.72900003 0 255 89 69.000000
3.76000023 -0.17700000 0.72200006 0 255 63 75.000000
3.76400018 -0.17700000 0.71600002 0 255 21 85.000000
3.76400018 -0.17700000 0.71000004 25 255 0 96.000000
3.77000022 -0.17700000 0.70400006 8 255 0 92.000000
3.76600027 -0.17700000 0.69700003 25 255 0 96.000000
3.77600026 -0.17700000 0.69200003 4 255 0 91.000000
3.77400017 -0.17700000 0.68400002 8 255 0 92.000000
3.77600026 -0.17700000 0.67800003 17 255 0 94.000000
3.78100014 -0.17700000 0.67200005 0 255 4 89.000000
3.77700019 -0.17600001 0.66500002 8 255 0 92.000000
3.77400017 -0.17600001 0.65700001 25 255 0 96.000000
3.78000021 -0.17600001 0.65100002 8 255 0 92.000000
3.78500009 -0.17600001 0.64500004 4 255 0 91.000000
3.78200006 -0.17600001 0.63800001 8 255 0 92.000000
3.78800011 -0.17600001 0.63200003 21 255 0 95.000000
3.78300023 -0.17500001 0.62400001 0 255 8 88.000000
3.78500009 -0.17500001 0.61700004 0 255 38 81.000000
3.78700018 -0.17400001 0.61100000 0 255 38 81.000000
3.78800011 -0.17400001 0.60400003 0 255 38 81.000000
3.78900027 -0.17400001 0.59700000 0 255 38 81.000000
3.79000020 -0.17300001 0.59000003 0 255 38 81.000000
3.79100013 -0.17300001 0.58300000 0 255 38 81.000000
3.79500008 -0.17200001 0.57600003 0 255 25 84.000000
3.79600024 -0.17200001 0.56900001 0 255 25 84.000000
3.79400015 -0.17100000 0.56200004 0 255 12 87.000000
3.79700017 -0.17100000 0.55500001 0 255 21 85.000000
3.80000019 -0.17000000 0.54800004 0 255 17 86.000000
3.80100012 -0.17000000 0.54100001 0 255 17 86.000000
3.80100012 -0.16900001 0.53400004 0 255 12 87.000000
3.80800009 -0.16900001 0.52700001 0 255 85 70.000000
10.98200035 -0.13100001 0.67000002 0 229 255 27.000000
3.80700016 -0.07800000 0.52500004 0 255 55 77.000000
3.79800010 -0.08000001 0.53100002 93 255 0 112.000000
3.79900026 -0.08100000 0.53800005 148 255 0 125.000000
3.79300022 -0.08200000 0.54500002 161 255 0 128.000000
3.79400015 -0.08300000 0.55200005 174 255 0 131.000000
3.79100013 -0.08500000 0.55900002 161 255 0 128.000000
3.79100013 -0.08600000 0.56600004 174 255 0 131.000000
3.79400015 -0.08800001 0.57400000 161 255 0 128.000000
3.79300022 -0.08900000 0.58100003 136 255 0 122.000000
3.78500009 -0.09000000 0.58600003 144 255 0 124.000000
3.78700018 -0.09200001 0.59400004 123 255 0 119.000000
3.78300023 -0.09300000 0.60000002 144 255 0 124.000000
3.78500009 -0.09500001 0.60700005 123 255 0 119.000000
3.78200006 -0.09600000 0.61400002 59 255 0 104.000000
3.77300024 -0.09800000 0.61900002 0 255 8 88.000000
3.77500010 -0.09900001 0.62700003 0 255 4 89.000000
3.77800012 -0.10100000 0.63400000 0 255 8 88.000000
3.76800013 -0.10200001 0.63900006 0 255 21 85.000000
3.77000022 -0.10400000 0.64600003 0 255 34 82.000000
3.76600027 -0.10500000 0.65200001 0 255 21 85.000000
3.76400018 -0.10700001 0.65900004 0 255 17 86.000000
3.76600027 -0.10900000 0.66600001 0 255 8 88.000000
3.76700020 -0.11000001 0.67300004 0 255 4 89.000000
3.76000023 -0.11200000 0.67800003 0 255 17 86.000000
3.77000022 -0.11400001 0.68700004 0 255 12 87.000000
3.75900006 -0.11500000 0.69100004 0 255 21 85.000000
3.76000023 -0.11700001 0.69800001 0 255 34 82.000000
3.76300025 -0.11900000 0.70500004 0 255 12 87.000000
3.76200008 -0.12100001 0.71200001 0 255 12 87.000000
3.76400018 -0.12300000 0.71900004 25 255 0 96.000000
3.75800014 -0.12400001 0.72400004 59 255 0 104.000000
3.76200008 -0.12600000 0.73100001 123 255 0 119.000000
3.76100016 -0.12800001 0.73700005 123 255 0 119.000000
3.75700021 -0.13000001 0.74300003 187 255 0 134.000000
3.75300026 -0.13100001 0.74800003 221 255 0 142.000000
3.75500011 -0.13300000 0.75500005 221 255 0 142.000000
3.75300026 -0.13500001 0.76100004 174 255 0 131.000000
3.75100017 -0.13700001 0.76700002 144 255 0 124.000000
3.75400019 -0.13900001 0.77300006 114 255 0 117.000000
3.75400019 -0.14100000 0.77900004 102 255 0 114.000000
3.75100017 -0.14200000 0.78500003 123 255 0 119.000000
3.75000024 -0.14400001 0.79100001 114 255 0 117.000000
3.74800014 -0.14600001 0.79600006 123 255 0 119.000000
3.74800014 -0.14800000 0.80200005 114 255 0 117.000000
3.74600029 -0.15000001 0.80800003 114 255 0 117.000000
3.74600029 -0.15200001 0.81400001 38 255 0 99.000000
3.74100018 -0.15400001 0.81900007 17 255 0 94.000000
3.74400020 -0.15600000 0.82500005 0 255 34 82.000000
3.73700023 -0.15800001 0.82900006 0 255 55 77.000000
3.73400021 -0.15900001 0.83500004 0 255 72 73.000000
3.73500013 -0.16100001 0.84000003 0 255 68 74.000000
3.73400021 -0.16300000 0.84600002 0 255 63 75.000000
3.73000026 -0.16500001 0.85100001 0 255 63 75.000000
3.73300028 -0.16700001 0.85700005 0 255 25 84.000000
3.73300028 -0.16900001 0.86300004 0 255 21 85.000000
3.72900009 -0.17100000 0.86700004 17 255 0 94.000000
3.73500013 -0.17400001 0.87400001 17 255 0 94.000000
3.73600006 -0.17600001 0.88000005 42 255 0 100.000000
3.72800016 -0.17800000 0.88300002 93 255 0 112.000000
3.73300028 -0.18000001 0.89000005 76 255 0 108.000000
3.73500013 -0.18200001 0.89600003 72 255 0 107.000000
3.72700024 -0.18400002 0.89900005 114 255 0 117.000000
3.72900009 -0.18600000 0.90500003 76 255 0 108.000000
3.73100019 -0.18800001 0.91100007 55 255 0 103.000000
3.72500014 -0.19000001 0.91500002 17 255 0 94.000000
3.72300029 -0.19200000 0.91900003 0 255 12 87.000000
3.71800017 -0.19400001 0.92300004 0 255 85 70.000000
3.71600008 -0.19600001 0.92800003 0 255 110 64.000000
3.71500015 -0.19800001 0.93200004 0 255 110 64.000000
3.71700025 -0.20000000 0.93800002 0 255 119 62.000000
3.71300006 -0.20200001 0.94200003 0 255 123 61.000000
3.71400023 -0.20400001 0.94700003 0 255 119 62.000000
3.71300006 -0.20700002 0.95100003 0 255 119 62.000000
3.71000028 -0.20800000 0.95500004 0 255 123 61.000000
3.70600009 -0.21000001 0.95900005 0 255 123 61.000000
3.71100020 -0.21300001 0.96500003 0 255 136 58.000000
3.71100020 -0.21500000 0.97000003 0 255 140 57.000000
3.70900011 -0.21700001 0.97400004 0 255 165 51.000000
3.70700026 -0.21900001 0.97800004 0 255 165 51.000000
3.70900011 -0.22100002 0.98300004 0 255 182 47.000000
3.71200013 -0.22400001 0.98800004 0 255 191 45.000000
3.71300006 -0.22600001 0.99300003 0 255 191 45.000000
3.70500016 -0.22800002 0.99500006 0 255 204 42.000000
3.70700026 -0.23000000 1.00000000 0 255 212 40.000000
3.70300007 -0.23200001 1.00300002 0 255 204 42.000000
3.70600009 -0.23400001 1.00900006 0 255 187 46.000000
3.70600009 -0.23700002 1.01300001 0 255 136 58.000000
3.71000028 -0.23900001 1.01800001 0 255 63 75.000000
3.70900011 -0.24100001 1.02200007 0 255 8 88.000000
3.70800018 -0.24300002 1.02600002 4 255 0 91.000000
3.70700026 -0.24500000 1.02900004 51 255 0 102.000000
3.70800018 -0.24800001 1.03400004 72 255 0 107.000000
3.70100021 -0.24900001 1.03600001 72 255 0 107.000000
3.70300007 -0.25200000 1.04000008 89 255 0 111.000000
3.70200014 -0.25400001 1.04400003 89 255 0 111.000000
3.70200014 -0.25600001 1.04700005 97 255 0 113.000000
3.70800018 -0.25900000 1.05300009 76 255 0 108.000000
3.70400023 -0.26100001 1.05599999 76 255 0 108.000000
3.70000029 -0.26200002 1.05800009 72 255 0 107.000000
3.70200014 -0.26500002 1.06200004 76 255 0 108.000000
3.69200015 -0.26600000 1.06300008 72 255 0 107.000000
3.70000029 -0.26900002 1.06900001 59 255 0 104.000000
3.69500017 -0.27100003 1.07100010 0 255 4 89.000000
3.70100021 -0.27300000 1.07600009 0 255 25 84.000000
3.70300007 -0.27600002 1.08000004 0 255 123 61.000000
3.70700026 -0.27800003 1.08500004 0 255 229 36.000000
3.74300027 0.52300000 0.73700005 29 255 0 97.000000
3.74700022 0.52000004 0.73400003 21 255 0 95.000000
3.74400020 0.51500005 0.73000002 0 255 42 80.000000
3.75000024 0.51100004 0.72800004 0 255 102 66.000000
3.75200009 0.50700003 0.72400004 0 255 170 50.000000
3.75000024 0.50300002 0.72000003 0 255 178 48.000000
3.74800014 0.49800003 0.71600002 0 255 187 46.000000
3.74900007 0.49400002 0.71200001 0 255 170 50.000000
3.75100017 0.49000001 0.70900005 0 255 170 50.000000
3.74900007 0.48500001 0.70500004 0 255 178 48.000000
3.75300026 0.48200002 0.70200002 0 255 187 46.000000
3.75400019 0.47700003 0.69800001 0 255 170 50.000000
3.75600028 0.47300002 0.69400001 0 255 170 50.000000
3.75400019 0.46800002 0.69000006 0 255 153 54.000000
3.75400019 0.46400002 0.68600005 0 255 148 55.000000
3.75500011 0.46000001 0.68200004 0 255 148 55.000000
3.76000023 0.45600003 0.67800003 0 255 148 55.000000
3.75300026 0.45100003 0.67300004 0 255 161 52.000000
3.75100017 0.44600001 0.66800004 0 255 153 54.000000
3.76100016 0.44300002 0.66600001 0 255 123 61.000000
3.76400018 0.43900001 0.66200006 0 255 29 83.000000
3.76800013 0.43400002 0.65800005 17 255 0 94.000000
3.76600027 0.43000001 0.65400004 63 255 0 105.000000
3.76600027 0.42500001 0.64900005 89 255 0 111.000000
3.76500010 0.42100003 0.64400005 89 255 0 111.000000
3.76900029 0.41700003 0.64100003 72 255 0 107.000000
3.76700020 0.41200003 0.63600004 55 255 0 103.000000
3.77000022 0.40800002 0.63200003 21 255 0 95.000000
3.76900029 0.40300003 0.62700003 0 255 25 84.000000
3.76700020 0.39800003 0.62200004 0 255 97 67.000000
3.76700020 0.39400002 0.61700004 0 255 114 63.000000
3.76900029 0.39000002 0.61300004 0 255 119 62.000000
3.76700020 0.38500002 0.60800004 0 255 119 62.000000
3.76900029 0.38000003 0.60300004 0 255 123 61.000000
3.77000022 0.37600002 0.59900004 0 255 119 62.000000
3.77200007 0.37200001 0.59400004 0 255 123 61.000000
3.77100015 0.36700001 0.58900005 0 255 144 56.000000
3.77700019 0.36300001 0.58500004 0 255 131 59.000000
3.77700019 0.35900003 0.58000004 0 255 119 62.000000
3.77400017 0.35300002 0.57400000 0 255 123 61.000000
3.78000021 0.35000002 0.57000005 0 255 119 62.000000
3.77800012 0.34500003 0.56500000 0 255 110 64.000000
3.78200006 0.34100002 0.56100005 0 255 85 70.000000
3.79200029 0.33700001 0.55700004 8 255 0 92.000000
3.78800011 0.33200002 0.55100000 55 255 0 103.000000
3.78300023 0.32700002 0.54500002 102 255 0 114.000000
3.79300022 0.32300001 0.54100001 55 255 0 103.000000
3.79700017 0.31900001 0.53700000 0 255 0 90.000000
3.79800010 0.31400001 0.53100002 0 255 148 55.000000
3.80700016 -0.26700002 0.52200001 0 34 255 4.000000
10.28600025 0.52000004 0.59900004 0 187 255 22.000000
3.78400016 0.40500003 0.53700000 0 255 157 53.000000
3.78000021 0.40800002 0.54200006 0 255 165 51.000000
3.76800013 0.41000003 0.54700005 0 255 221 38.000000
3.76900029 0.41300002 0.55300003 0 255 225 37.000000
3.76800013 0.41600001 0.55800003 0 255 225 37.000000
3.77600026 0.42100003 0.56500000 0 255 199 43.000000
3.77400017 0.42400002 0.57100004 0 255 165 51.000000
3.77200007 0.42600003 0.57600003 0 255 161 52.000000
3.77700019 0.43000001 0.58300000 0 255 153 54.000000
3.76800013 0.43200001 0.58800000 0 255 157 53.000000
3.77600026 0.43600002 0.59500003 0 255 148 55.000000
3.77100015 0.43800002 0.60000002 0 255 102 66.000000
3.77000022 0.44100001 0.60500002 0 255 55 77.000000
3.77300024 0.44500002 0.61200005 17 255 0 94.000000
3.77400017 0.44800001 0.61800003 12 255 0 93.000000
3.77100015 0.45000002 0.62300003 0 255 0 90.000000
3.76700020 0.45200002 0.62800002 0 255 76 72.000000
3.76100016 0.45400003 0.63200003 0 255 136 58.000000
3.76000023 0.45700002 0.63800001 0 255 140 57.000000
3.76300025 0.46000001 0.64400005 0 255 144 56.000000
3.76100016 0.46200001 0.64900005 0 255 148 55.000000
3.75600028 0.46400002 0.65400004 0 255 144 56.000000
3.76100016 0.46800002 0.66100001 0 255 148 55.000000
3.74900007 0.46900001 0.66400003 0 255 153 54.000000
3.75100017 0.47200003 0.67000002 0 255 161 52.000000
3.75600028 0.47500002 0.67600006 0 255 153 54.000000
3.75300026 0.47700003 0.68100005 0 255 148 55.000000
3.74800014 0.47900003 0.68600005 0 255 165 51.000000
3.75200009 0.48200002 0.69200003 0 255 178 48.000000
3.75100017 0.48400003 0.69700003 0 255 153 54.000000
3.74300027 0.48500001 0.70100003 0 255 161 52.000000
3.74600029 0.48800004 0.70700002 0 255 136 58.000000
3.74900007 0.49000001 0.71300006 0 255 148 55.000000
3.74700022 0.49200001 0.71800005 0 255 127 60.000000
3.75000024 0.49500003 0.72400004 0 255 55 77.000000
3.75100017 0.49700001 0.73000002 21 255 0 95.000000
3.74300027 0.49800003 0.73300004 51 255 0 102.000000
3.74900007 0.50100005 0.74000001 89 255 0 111.000000
3.74500012 0.50300002 0.74400002 72 255 0 107.000000
3.74100018 0.50400001 0.74900001 89 255 0 111.000000
3.73900008 0.50600004 0.75300002 97 255 0 113.000000
3.73900008 0.50800002 0.75900006 80 255 0 109.000000
3.74100018 0.51000005 0.76400006 97 255 0 113.000000
3.73700023 0.51200002 0.76800001 80 255 0 109.000000
3.74000025 0.51400000 0.77400005 119 255 0 118.000000
3.73900008 0.51600003 0.77900004 110 255 0 116.000000
3.73700023 0.51700002 0.78400004 119 255 0 118.000000
3.74000025 0.52000004 0.78900003 110 255 0 116.000000
3.73900008 0.52100003 0.79400003 110 255 0 116.000000
3.73600006 0.52300000 0.79800004 119 255 0 118.000000
3.73300028 0.52400005 0.80200005 110 255 0 116.000000
3.66900015 0.51900005 1.09600008 0 187 255 22.000000
3.66600013 0.51700002 1.09500003 0 187 255 22.000000
3.66600013 0.51600003 1.09600008 0 187 255 22.000000
3.66500020 0.51400000 1.09600008 0 187 255 22.000000
3.66800022 0.51300001 1.09700000 0 187 255 22.000000
3.66600013 0.51100004 1.09700000 0 187 255 22.000000
3.66700006 0.51000005 1.09700000 0 187 255 22.000000
3.66700006 0.50800002 1.09700000 0 187 255 22.000000
3.66600013 0.50700003 1.09700000 0 187 255 22.000000
3.66700006 0.50500000 1.09700000 0 187 255 22.000000
3.66200018 0.50300002 1.09600008 0 178 255 21.000000
3.66900015 0.50200003 1.09800005 0 187 255 22.000000
3.66700006 0.50000000 1.09700000 0 187 255 22.000000
3.66900015 0.49900001 1.09800005 0 187 255 22.000000
3.66800022 0.49700001 1.09700000 0 187 255 22.000000
3.67000008 0.49500003 1.09800005 0 187 255 22.000000
3.66200018 0.49300003 1.09500003 0 195 255 23.000000
3.67000008 0.49200001 1.09700000 0 187 255 22.000000
3.66500020 0.48900002 1.09500003 0 187 255 22.000000
3.66500020 0.48800004 1.09500003 0 204 255 24.000000
3.66600013 0.48600003 1.09400010 0 204 255 24.000000
3.66200018 0.48300001 1.09300005 0 212 255 25.000000
3.66600013 0.48200002 1.09300005 0 221 255 26.000000
3.66500020 0.48000002 1.09300005 0 221 255 26.000000
3.66500020 0.47800002 1.09200001 0 221 255 26.000000
3.66500020 0.47600001 1.09100008 0 229 255 27.000000
3.66500020 0.47400004 1.09000003 0 229 255 27.000000
3.66000009 0.47100002 1.08800006 0 246 255 29.000000
3.66500020 0.47000003 1.08900011 0 238 255 28.000000
3.66100025 0.46800002 1.08700001 0 246 255 29.000000
3.66000009 0.46500003 1.08600008 0 246 255 29.000000
3.66100025 0.46400002 1.08500004 0 246 255 29.000000
3.66400027 0.46200001 1.08500004 0 246 255 29.000000
3.66300011 0.46000001 1.08300006 0 255 255 30.000000
3.66400027 0.45800003 1.08200002 0 255 255 30.000000
3.66100025 0.45500001 1.08000004 0 255 250 31.000000
3.66100025 0.45300001 1.07900000 0 255 246 32.000000
3.65800023 0.45000002 1.07700002 0 255 242 33.000000
3.67100024 0.45000002 1.07900000 0 255 225 37.000000
3.65500021 0.44600001 1.07300007 0 255 233 35.000000
3.67900014 0.44600001 1.07900000 0 255 212 40.000000
3.67100024 0.44300002 1.07500005 0 255 208 41.000000
3.67300010 0.44100001 1.07400000 0 255 204 42.000000
3.67200017 0.43900001 1.07200003 0 255 208 41.000000
3.67600012 0.43700001 1.07200003 0 255 199 43.000000
3.68100023 0.43500003 1.07100010 0 255 161 52.000000
3.68200016 0.43300003 1.07000005 0 255 89 69.000000
3.68000007 0.43000001 1.06800008 0 255 34 82.000000
3.68500018 0.42800003 1.06700003 17 255 0 94.000000
3.68400025 0.42600003 1.06500006 4 255 0 91.000000
3.68000007 0.42300001 1.06200004 29 255 0 97.000000
3.68100023 0.42100003 1.06000006 29 255 0 97.000000
3.68400025 0.41900003 1.05900002 42 255 0 100.000000
3.68500018 0.41600001 1.05700004 42 255 0 100.000000
3.68800020 0.41400003 1.05599999 21 255 0 95.000000
3.69000006 0.41200003 1.05400002 29 255 0 97.000000
3.68500018 0.40900001 1.05100000 29 255 0 97.000000
3.68700027 0.40700001 1.04900002 38 255 0 99.000000
3.68900013 0.40400001 1.04800010 42 255 0 100.000000
3.68900013 0.40200001 1.04500008 38 255 0 99.000000
3.68900013 0.39900002 1.04300010 42 255 0 100.000000
3.68900013 0.39700001 1.04000008 29 255 0 97.000000
3.68900013 0.39400002 1.03800011 21 255 0 95.000000
3.69300008 0.39200002 1.03600001 4 255 0 91.000000
3.68700027 0.38900003 1.03200006 17 255 0 94.000000
3.68800020 0.38600001 1.03000009 0 255 0 90.000000
3.69000006 0.38400000 1.02800000 0 255 42 80.000000
3.69000006 0.38100001 1.02500010 0 255 76 72.000000
3.68600011 0.37800002 1.02100003 0 255 102 66.000000
3.68900013 0.37600002 1.01900005 0 255 131 59.000000
3.68800020 0.37300003 1.01600003 0 255 136 58.000000
3.68600011 0.37000000 1.01300001 0 255 136 58.000000
3.68800020 0.36800003 1.00999999 0 255 140 57.000000
3.68200016 0.36400002 1.00600004 0 255 144 56.000000
3.69000006 0.36200002 1.00500000 0 255 140 57.000000
3.69000006 0.36000001 1.00200009 0 255 136 58.000000
3.68500018 0.35700002 0.99700004 0 255 144 56.000000
3.68700027 0.35400000 0.99500006 0 255 127 60.000000
3.69300008 0.35200003 0.99300003 0 255 127 60.000000
3.69000006 0.34900001 0.98900002 0 255 123 61.000000
3.69400024 0.34600002 0.98700005 0 255 114 63.000000
3.69400024 0.34400001 0.98300004 0 255 119 62.000000
3.69200015 0.34100002 0.97900003 0 255 114 63.000000
3.69400024 0.33800003 0.97600007 0 255 110 64.000000
3.69700027 0.33500001 0.97400004 0 255 102 66.000000
3.70400023 0.33300000 0.97200006 0 255 59 76.000000
3.70300007 0.33000001 0.96800005 0 255 21 85.000000
3.70400023 0.32800001 0.96500003 0 255 4 89.000000
3.70700026 0.32500002 0.96200007 34 255 0 98.000000
3.70700026 0.32200003 0.95800006 55 255 0 103.000000
3.70700026 0.31900001 0.95500004 63 255 0 105.000000
3.70800018 0.31700000 0.95100003 76 255 0 108.000000
3.71200013 0.31400001 0.94800007 63 255 0 105.000000
3.71300006 0.31100002 0.94500005 63 255 0 105.000000
3.71500015 0.30900002 0.94100004 63 255 0 105.000000
3.71500015 0.30600002 0.93700004 46 255 0 101.000000
3.71200013 0.30300000 0.93200004 8 255 0 92.000000
3.71300006 0.30000001 0.92900002 0 255 0 90.000000
3.71100020 0.29700002 0.92400002 0 255 21 85.000000
3.70500016 0.29300001 0.91800004 0 255 46 79.000000
3.70700026 0.29100001 0.91500002 0 255 63 75.000000
3.70600009 0.28800002 0.91000003 0 255 51 78.000000
3.70600009 0.28500003 0.90600002 0 255 59 76.000000
3.70600009 0.28200001 0.90100002 0 255 51 78.000000
3.71100020 0.27900001 0.89800006 0 255 46 79.000000
3.70900011 0.27600002 0.89300007 0 255 46 79.000000
3.71300006 0.27400002 0.89000005 0 255 46 79.000000
3.71200013 0.27000001 0.88500005 0 255 46 79.000000
3.71500015 0.26800001 0.88100004 0 255 51 78.000000
3.71300006 0.26500002 0.87600005 0 255 51 78.000000
3.71700025 0.26200002 0.87300003 0 255 51 78.000000
3.72000027 0.25900000 0.86800003 0 255 46 79.000000
3.71700025 0.25600001 0.86300004 0 255 42 80.000000
3.71200013 0.25300002 0.85700005 0 255 42 80.000000
3.71600008 0.25000000 0.85300004 0 255 29 83.000000
3.71700025 0.24700001 0.84900004 0 255 21 85.000000
3.72100019 0.24500000 0.84500003 0 255 21 85.000000
3.71900010 0.24200001 0.83900005 0 255 21 85.000000
3.72600007 0.23900001 0.83600003 0 255 8 88.000000
3.72200012 0.23600002 0.83000004 0 255 8 88.000000
3.73000026 0.23300001 0.82700002 8 255 0 92.000000
3.73100019 0.23100001 0.82200003 8 255 0 92.000000
3.72500014 0.22700001 0.81600004 0 255 0 90.000000
3.72700024 0.22400001 0.81100005 0 255 0 90.000000
3.72100019 0.22100002 0.80500007 21 255 0 95.000000
3.72200012 0.21800001 0.80000001 21 255 0 95.000000
3.72300029 0.21500000 0.79500002 21 255 0 95.000000
3.72300029 0.21200001 0.78900003 21 255 0 95.000000
3.73100019 0.21000001 0.78600001 4 255 0 91.000000
3.73200011 0.20700002 0.78100002 4 255 0 91.000000
3.73300028 0.20400001 0.77500004 4 255 0 91.000000
3.73400021 0.20200001 0.77000004 21 255 0 95.000000
3.73000026 0.19800001 0.76400006 0 255 12 87.000000
3.73600006 0.19600001 0.76000005 12 255 0 93.000000
3.73800015 0.19300000 0.75400001 4 255 0 91.000000
3.73900008 0.19000001 0.74900001 4 255 0 91.000000
3.74000025 0.18700001 0.74400002 12 255 0 93.000000
3.74200010 0.18400002 0.73800004 4 255 0 91.000000
3.74300027 0.18200001 0.73300004 4 255 0 91.000000
3.74600029 0.17900001 0.72800004 12 255 0 93.000000
3.74700022 0.17600001 0.72200006 42 255 0 100.000000
3.75100017 0.17300001 0.71700001 93 255 0 112.000000
3.75800014 0.17100000 0.71300006 123 255 0 119.000000
3.75600028 0.16800001 0.70600003 102 255 0 114.000000
3.76000023 0.16500001 0.70100003 123 255 0 119.000000
3.76200008 0.16300000 0.69600004 136 255 0 122.000000
3.76200008 0.16000001 0.69000006 123 255 0 119.000000
3.76100016 0.15700001 0.68300003 102 255 0 114.000000
3.76500010 0.15400001 0.67800003 123 255 0 119.000000
3.76600027 0.15100001 0.67200005 123 255 0 119.000000
3.76700020 0.14900000 0.66600001 123 255 0 119.000000
3.76900029 0.14600001 0.66000003 136 255 0 122.000000
3.76700020 0.14300001 0.65400004 157 255 0 127.000000
3.77100015 0.14000000 0.64800000 174 255 0 131.000000
3.77000022 0.13800001 0.64200002 131 255 0 121.000000
3.77100015 0.13500001 0.63600004 76 255 0 108.000000
3.76600027 0.13200000 0.62900001 12 255 0 93.000000
3.77400017 0.12900001 0.62400001 8 255 0 92.000000
3.77500010 0.12700000 0.61700004 68 255 0 106.000000
3.77400017 0.12400001 0.61100000 102 255 0 114.000000
3.78100014 0.12200001 0.60500002 144 255 0 124.000000
3.77900028 0.11900000 0.59800005 174 255 0 131.000000
3.77900028 0.11600000 0.59200001 157 255 0 127.000000
3.78500009 0.11400001 0.58600003 144 255 0 124.000000
3.78600025 0.11100001 0.58000004 144 255 0 124.000000
3.78700018 0.10800000 0.57300001 144 255 0 124.000000
3.78600025 0.10600001 0.56600004 136 255 0 122.000000
3.78900027 0.10300001 0.56000000 144 255 0 124.000000
3.79000020 0.10000000 0.55400002 144 255 0 124.000000
3.78900027 0.09800000 0.54700005 136 255 0 122.000000
3.79800010 0.09500001 0.54100001 17 255 0 94.000000
3.79700017 0.09300000 0.53400004 0 255 148 55.000000
3.79400015 0.09000000 0.52700001 0 93 255 11.000000
3.78500009 0.18000001 0.52900004 0 212 255 25.000000
3.77300024 0.18100001 0.53400004 0 255 195 44.000000
3.78700018 0.18300001 0.54300004 0 255 97 67.000000
3.78300023 0.18500000 0.55000001 0 255 80 71.000000
3.78000021 0.18600000 0.55600005 0 255 59 76.000000
3.77800012 0.18800001 0.56300002 0 255 42 80.000000
3.77300024 0.18900001 0.56900001 0 255 34 82.000000
3.77800012 0.19100001 0.57700002 0 255 34 82.000000
3.77400017 0.19200000 0.58300000 0 255 21 85.000000
3.77100015 0.19400001 0.58900005 0 255 29 83.000000
3.77400017 0.19600001 0.59600002 0 255 46 79.000000
3.76700020 0.19700001 0.60200006 0 255 34 82.000000
3.76900029 0.19800001 0.60900003 0 255 21 85.000000
3.77500010 0.20000000 0.61700004 0 255 8 88.000000
3.77100015 0.20100001 0.62300003 68 255 0 106.000000
3.77200007 0.20300001 0.63000005 157 255 0 127.000000
3.77300024 0.20400001 0.63700002 144 255 0 124.000000
3.76900029 0.20500001 0.64300001 157 255 0 127.000000
3.76700020 0.20600002 0.64900005 144 255 0 124.000000
3.76700020 0.20800000 0.65600002 157 255 0 127.000000
3.76800013 0.20900001 0.66300005 144 255 0 124.000000
3.76500010 0.21000001 0.66900003 157 255 0 127.000000
3.76200008 0.21100001 0.67500001 144 255 0 124.000000
3.76400018 0.21300001 0.68200004 144 255 0 124.000000
3.76000023 0.21300001 0.68800002 144 255 0 124.000000
3.75900006 0.21400002 0.69400001 174 255 0 131.000000
3.76100016 0.21600001 0.70100003 144 255 0 124.000000
3.75600028 0.21700001 0.70700002 144 255 0 124.000000
3.75300026 0.21700001 0.71300006 131 255 0 121.000000
3.74900007 0.21800001 0.71800005 93 255 0 112.000000
3.74600029 0.21900001 0.72400004 34 255 0 98.000000
3.74400020 0.22000001 0.73000002 12 255 0 93.000000
3.73700023 0.22000001 0.73500001 4 255 0 91.000000
3.73200011 0.22100002 0.74000001 0 255 4 89.000000
3.73800015 0.22200002 0.74800003 21 255 0 95.000000
3.73700023 0.22300000 0.75400001 21 255 0 95.000000
3.72900009 0.22300000 0.75800002 0 255 4 89.000000
3.73100019 0.22400001 0.76500005 4 255 0 91.000000
3.73500013 0.22500001 0.77200001 12 255 0 93.000000
3.72700024 0.22600001 0.77600002 21 255 0 95.000000
3.72500014 0.22600001 0.78200006 21 255 0 95.000000
3.72300029 0.22700001 0.78800005 0 255 12 87.000000
3.73000026 0.22800002 0.79500002 12 255 0 93.000000
3.72700024 0.22800002 0.80000001 4 255 0 91.000000
3.72700024 0.22900002 0.80600005 12 255 0 93.000000
3.72600007 0.23000000 0.81200004 0 255 0 90.000000
3.72800016 0.23000000 0.81800002 29 255 0 97.000000
3.72700024 0.23100001 0.82400006 38 255 0 99.000000
