ply
format ascii 1.0
comment Created by CloudCompare v2.11.3 (Anoia)
comment Created 2021/4/5 13:21
obj_info Generated by CloudCompare!
element vertex 1540
property float x
property float y
property float z
property uchar red
property uchar green
property uchar blue
property float scalar_intensity
end_header
3.168 1.652 0.487 0 255 55 77 
3.168 1.651 0.493 0 255 46 79 
3.169 1.649 0.499 0 255 0 90 
3.173 1.65 0.506 29 255 0 97 
3.176 1.649 0.513 46 255 0 101 
3.176 1.647 0.519 46 255 0 101 
3.174 1.645 0.525 55 255 0 103 
3.175 1.643 0.532 63 255 0 105 
3.166 1.616 0.615 0 255 51 78 
3.168 1.617 0.621 0 255 42 80 
3.168 1.615 0.627 0 255 42 80 
3.168 1.613 0.632 0 255 42 80 
3.168 1.612 0.638 0 255 46 79 
3.169 1.612 0.645 0 255 51 78 
3.168 1.61 0.65 0 255 51 78 
3.165 1.607 0.655 0 255 63 75 
3.169 1.601 0.702 0 255 51 78 
3.172 1.601 0.708 0 255 29 83 
3.173 1.601 0.714 0 255 0 90 
3.177 1.602 0.72 0 255 0 90 
3.171 1.599 0.724 0 255 0 90 
3.17 1.594 0.758 0 255 12 87 
3.171 1.593 0.763 0 255 8 88 
3.166 1.59 0.767 0 255 0 90 
3.165 1.59 0.772 0 255 0 90 
3.469 1.102 0.42 0 144 255 17 
3.466 1.107 0.419 0 144 255 17 
3.465 1.111 0.418 0 153 255 18 
3.456 1.123 0.414 0 153 255 18 
3.46 1.129 0.414 0 153 255 18 
3.457 1.134 0.413 0 144 255 17 
3.452 1.137 0.411 0 153 255 18 
3.453 1.142 0.41 0 255 233 35 
3.45 1.156 0.407 0 255 63 75 
3.445 1.16 0.405 0 255 76 72 
3.451 1.167 0.403 0 255 97 67 
3.439 1.174 0.4 0 255 157 53 
3.438 1.179 0.398 0 255 182 47 
3.41 1.214 0.383 0 212 255 25 
3.412 1.22 0.382 0 229 255 27 
3.41 1.23 0.379 0 229 255 27 
3.407 1.234 0.377 0 255 174 49 
3.408 1.24 0.375 0 255 21 85 
3.401 1.26 0.367 0 255 21 85 
3.399 1.265 0.364 0 255 21 85 
3.397 1.271 0.362 0 255 21 85 
3.39 1.279 0.357 0 255 17 86 
3.387 1.284 0.355 0 255 8 88 
3.386 1.29 0.353 0 255 17 86 
3.385 1.295 0.35 0 255 17 86 
3.38 1.299 0.348 0 255 4 89 
3.378 1.305 0.346 0 255 4 89 
3.377 1.31 0.343 0 255 4 89 
3.372 1.325 0.336 0 255 51 78 
3.364 1.329 0.333 0 255 165 51 
3.352 1.337 0.327 0 255 242 33 
3.353 1.343 0.325 0 255 229 36 
3.351 1.354 0.32 0 255 229 36 
3.346 1.359 0.317 0 255 221 38 
3.342 1.363 0.314 0 255 221 38 
3.343 1.37 0.31 0 255 221 38 
3.34 1.375 0.308 0 255 221 38 
3.342 1.381 0.305 0 255 204 42 
3.34 1.388 0.302 0 255 182 47 
3.338 1.399 0.297 0 255 85 70 
3.331 1.421 0.285 0 255 76 72 
3.313 1.433 0.275 0 255 204 42 
3.311 1.438 0.271 0 255 204 42 
3.309 1.443 0.268 0 255 204 42 
3.307 1.449 0.265 0 255 204 42 
3.305 1.454 0.262 0 255 204 42 
3.303 1.46 0.259 0 255 204 42 
3.301 1.466 0.255 0 255 204 42 
3.299 1.472 0.251 0 255 204 42 
3.302 1.479 0.248 0 255 191 45 
3.292 1.482 0.244 0 255 195 44 
3.293 1.488 0.241 0 255 204 42 
3.291 1.494 0.238 0 255 204 42 
3.287 1.505 0.231 0 255 204 42 
3.284 1.517 0.224 0 255 38 81 
3.284 1.523 0.22 0 255 21 85 
3.283 1.529 0.217 0 255 25 84 
3.279 1.534 0.213 0 255 42 80 
3.28 1.541 0.21 0 255 29 83 
3.273 1.545 0.206 0 255 51 78 
3.273 1.551 0.202 0 255 93 68 
3.381 1.352 0.21 0 187 255 22 
3.381 1.347 0.213 0 255 195 44 
3.381 1.341 0.217 0 255 157 53 
3.38 1.334 0.22 0 255 208 41 
3.378 1.328 0.223 0 229 255 27 
3.379 1.323 0.227 0 229 255 27 
3.4 1.28 0.259 0 246 255 29 
3.404 1.271 0.266 0 246 255 29 
3.403 1.265 0.269 0 246 255 29 
3.406 1.261 0.273 0 246 255 29 
3.406 1.256 0.277 0 238 255 28 
3.42 1.235 0.295 0 255 29 83 
3.42 1.23 0.298 0 255 12 87 
3.427 1.228 0.303 0 255 102 66 
3.428 1.223 0.306 0 255 165 51 
3.428 1.214 0.313 0 221 255 26 
3.431 1.21 0.316 0 187 255 22 
3.435 1.197 0.327 0 204 255 24 
3.436 1.194 0.33 0 204 255 24 
3.432 1.188 0.333 0 195 255 23 
3.436 1.185 0.337 0 178 255 21 
3.441 1.173 0.348 0 178 255 21 
3.443 1.169 0.352 0 178 255 21 
3.442 1.165 0.355 0 170 255 20 
3.446 1.162 0.359 0 170 255 20 
3.457 1.15 0.374 0 255 165 51 
3.465 1.107 0.415 0 144 255 17 
3.468 1.104 0.419 0 144 255 17 
3.464 1.1 0.422 0 136 255 16 
3.474 1.093 0.433 0 127 255 15 
3.47 1.088 0.436 0 119 255 14 
3.476 1.087 0.44 0 119 255 14 
3.474 1.084 0.443 0 110 255 13 
3.474 1.081 0.446 0 110 255 13 
3.485 1.081 0.451 0 110 255 13 
3.484 1.077 0.454 0 110 255 13 
3.476 1.072 0.456 0 110 255 13 
3.483 1.071 0.46 0 110 255 13 
3.478 1.067 0.463 0 102 255 12 
3.481 1.065 0.467 0 102 255 12 
3.489 1.057 0.481 0 68 255 8 
3.454 1.043 0.721 0 255 46 79 
3.453 1.046 0.721 0 255 38 81 
3.454 1.048 0.722 0 255 21 85 
3.454 1.051 0.723 0 255 8 88 
3.453 1.052 0.723 0 255 8 88 
3.448 1.054 0.723 0 255 21 85 
3.451 1.057 0.724 0 255 8 88 
3.448 1.059 0.724 0 255 8 88 
3.45 1.062 0.725 0 255 8 88 
3.451 1.065 0.726 0 255 0 90 
3.445 1.065 0.725 0 255 8 88 
3.448 1.069 0.726 0 255 8 88 
3.445 1.071 0.726 0 255 8 88 
3.443 1.073 0.725 0 255 8 88 
3.446 1.077 0.726 0 255 8 88 
3.442 1.078 0.725 0 255 8 88 
3.439 1.08 0.725 0 255 21 85 
3.439 1.083 0.725 0 255 21 85 
3.438 1.086 0.725 0 255 21 85 
3.437 1.088 0.725 0 255 21 85 
3.436 1.091 0.725 0 255 21 85 
3.431 1.093 0.724 0 255 8 88 
3.414 1.116 0.719 0 255 12 87 
3.411 1.118 0.718 0 255 17 86 
3.411 1.121 0.718 0 255 17 86 
3.412 1.125 0.717 0 255 72 73 
3.417 1.13 0.718 0 255 174 49 
3.419 1.134 0.718 0 238 255 28 
3.398 1.155 0.708 0 255 238 34 
3.4 1.16 0.708 0 255 225 37 
3.401 1.164 0.707 0 255 195 44 
3.399 1.167 0.706 0 255 174 49 
3.397 1.17 0.705 0 255 144 56 
3.393 1.172 0.703 0 255 131 59 
3.392 1.177 0.701 0 255 114 63 
3.392 1.18 0.7 0 255 76 72 
3.393 1.184 0.699 0 255 68 74 
3.384 1.185 0.696 0 255 25 84 
3.383 1.188 0.694 0 255 12 87 
3.379 1.191 0.692 0 255 34 82 
3.38 1.203 0.689 0 255 0 90 
3.379 1.207 0.687 0 255 0 90 
3.372 1.209 0.684 0 255 29 83 
3.374 1.213 0.683 0 255 34 82 
3.347 1.254 0.657 0 229 255 27 
3.347 1.258 0.655 0 229 255 27 
3.343 1.261 0.653 0 229 255 27 
3.344 1.266 0.651 0 229 255 27 
3.348 1.272 0.65 0 246 255 29 
3.33 1.287 0.634 0 255 250 31 
3.327 1.29 0.631 0 255 246 32 
3.327 1.322 0.614 0 255 38 81 
3.325 1.325 0.611 0 255 46 79 
3.326 1.33 0.608 0 255 29 83 
3.322 1.334 0.605 0 255 59 76 
3.322 1.338 0.602 0 255 89 69 
3.305 1.359 0.582 0 255 208 41 
3.3 1.362 0.578 0 255 204 42 
3.29 1.397 0.55 0 255 170 50 
3.289 1.401 0.546 0 255 144 56 
3.292 1.407 0.543 0 255 93 68 
3.291 1.411 0.54 0 255 51 78 
3.285 1.439 0.517 0 255 12 87 
3.282 1.441 0.513 0 255 29 83 
3.284 1.447 0.509 0 255 42 80 
3.28 1.451 0.505 0 255 51 78 
3.276 1.454 0.501 0 255 68 74 
3.274 1.458 0.496 0 255 85 70 
3.263 1.458 0.491 0 255 114 63 
3.267 1.465 0.488 0 255 131 59 
3.267 1.469 0.484 0 255 123 61 
3.258 1.475 0.474 0 255 119 62 
3.257 1.486 0.465 0 255 119 62 
3.255 1.489 0.461 0 255 114 63 
3.256 1.5 0.452 0 255 63 75 
3.252 1.503 0.448 0 255 29 83 
3.261 1.512 0.445 0 255 34 82 
3.258 1.516 0.44 0 255 29 83 
3.236 1.556 0.392 0 255 72 73 
3.23 1.563 0.382 0 255 106 65 
3.23 1.568 0.377 0 255 102 66 
3.225 1.571 0.372 0 255 85 70 
3.224 1.575 0.367 0 255 89 69 
3.221 1.584 0.356 0 255 89 69 
3.226 1.597 0.347 0 255 63 75 
3.228 1.603 0.342 0 255 21 85 
3.224 1.606 0.337 0 255 29 83 
3.222 1.609 0.331 0 255 4 89 
3.22 1.614 0.326 0 255 4 89 
3.223 1.62 0.321 0 255 17 86 
3.22 1.624 0.316 0 255 17 86 
3.217 1.627 0.311 4 255 0 91 
3.219 1.634 0.306 0 255 17 86 
3.215 1.636 0.3 0 255 51 78 
3.211 1.639 0.294 0 255 63 75 
3.205 1.642 0.288 0 255 102 66 
3.203 1.647 0.283 0 255 102 66 
3.202 1.65 0.278 0 255 114 63 
3.195 1.652 0.272 0 255 123 61 
3.198 1.659 0.267 0 255 119 62 
3.196 1.663 0.261 0 255 136 58 
3.194 1.666 0.256 0 255 136 58 
3.192 1.671 0.25 0 255 136 58 
3.196 1.678 0.244 0 255 153 54 
3.197 1.683 0.238 0 255 144 56 
3.189 1.684 0.232 0 255 140 57 
3.189 1.689 0.227 0 255 110 64 
3.193 1.701 0.216 0 255 17 86 
3.19 1.704 0.21 17 255 0 94 
3.189 1.709 0.204 0 255 8 88 
3.19 1.714 0.198 0 255 110 64 
3.252 1.596 0.205 0 255 85 70 
3.251 1.589 0.209 0 255 0 90 
3.263 1.55 0.251 34 255 0 98 
3.269 1.532 0.271 34 255 0 98 
3.277 1.519 0.286 0 255 29 83 
3.274 1.513 0.291 0 255 59 76 
3.276 1.51 0.296 0 255 85 70 
3.28 1.506 0.301 0 255 25 84 
3.284 1.503 0.307 0 255 12 87 
3.286 1.498 0.312 12 255 0 93 
3.285 1.493 0.317 4 255 0 91 
3.288 1.49 0.322 12 255 0 93 
3.29 1.486 0.327 12 255 0 93 
3.289 1.481 0.332 17 255 0 94 
3.29 1.475 0.336 12 255 0 93 
3.29 1.466 0.347 25 255 0 96 
3.298 1.46 0.358 12 255 0 93 
3.296 1.455 0.362 4 255 0 91 
3.297 1.451 0.367 4 255 0 91 
3.301 1.447 0.372 12 255 0 93 
3.302 1.443 0.377 12 255 0 93 
3.303 1.44 0.382 12 255 0 93 
3.304 1.436 0.387 12 255 0 93 
3.318 1.391 0.446 0 255 0 90 
3.319 1.384 0.456 0 255 0 90 
3.324 1.382 0.461 29 255 0 97 
3.328 1.38 0.466 29 255 0 97 
3.327 1.376 0.471 21 255 0 95 
3.328 1.354 0.5 0 255 29 83 
3.323 1.348 0.504 0 255 97 67 
3.324 1.345 0.508 0 255 157 53 
3.329 1.328 0.536 0 255 221 38 
3.333 1.323 0.546 0 255 182 47 
3.335 1.321 0.551 0 255 123 61 
3.342 1.314 0.565 0 255 0 90 
3.343 1.312 0.57 8 255 0 92 
3.343 1.308 0.574 8 255 0 92 
3.34 1.305 0.578 21 255 0 95 
3.346 1.301 0.588 4 255 0 91 
3.346 1.299 0.593 0 255 4 89 
3.348 1.297 0.597 0 255 21 85 
3.349 1.268 0.65 0 246 255 29 
3.343 1.263 0.653 0 238 255 28 
3.343 1.262 0.657 0 238 255 28 
3.344 1.259 0.661 0 229 255 27 
3.344 1.253 0.673 0 229 255 27 
3.345 1.252 0.678 0 229 255 27 
3.344 1.25 0.681 0 221 255 26 
3.345 1.248 0.685 0 229 255 27 
3.359 1.248 0.7 0 255 246 32 
3.356 1.246 0.704 0 255 187 46 
3.357 1.244 0.708 0 255 114 63 
3.356 1.242 0.711 0 255 12 87 
3.353 1.239 0.715 0 255 21 85 
3.351 1.23 0.737 0 255 17 86 
3.354 1.23 0.742 0 255 29 83 
3.357 1.23 0.746 0 255 8 88 
3.357 1.229 0.75 0 255 8 88 
3.356 1.228 0.753 0 255 8 88 
3.351 1.225 0.756 0 255 34 82 
3.36 1.221 0.783 0 255 114 63 
3.359 1.22 0.786 0 255 131 59 
3.355 1.218 0.788 0 255 148 55 
3.355 1.217 0.791 0 255 165 51 
3.362 1.219 0.797 0 255 191 45 
3.361 1.218 0.8 0 255 233 35 
3.362 1.218 0.803 0 204 255 24 
3.203 1.492 0.801 0 25 255 3 
3.206 1.496 0.798 0 85 255 10 
3.204 1.498 0.793 0 187 255 22 
3.185 1.528 0.748 0 255 170 50 
3.189 1.533 0.745 0 255 157 53 
3.182 1.55 0.719 0 255 144 56 
3.181 1.554 0.715 0 255 144 56 
3.18 1.557 0.711 0 255 144 56 
3.181 1.56 0.706 0 255 144 56 
3.185 1.565 0.703 0 255 123 61 
3.166 1.608 0.629 0 255 89 69 
3.166 1.611 0.624 0 255 85 70 
3.165 1.614 0.618 0 255 80 71 
3.163 1.616 0.613 0 255 72 73 
3.168 1.622 0.609 0 255 63 75 
3.168 1.625 0.604 0 255 63 75 
3.169 1.632 0.594 0 255 29 83 
3.172 1.637 0.589 0 255 42 80 
3.172 1.641 0.584 0 255 38 81 
3.171 1.643 0.578 0 255 29 83 
3.167 1.644 0.572 0 255 12 87 
3.162 1.645 0.566 46 255 0 101 
3.163 1.649 0.561 242 255 0 147 
3.158 1.65 0.554 255 252 0 150 
3.156 1.652 0.549 255 252 0 150 
3.157 1.659 0.538 255 252 0 150 
3.147 1.699 0.455 255 252 0 150 
3.149 1.704 0.449 199 255 0 137 
3.147 1.706 0.442 148 255 0 125 
3.144 1.707 0.436 80 255 0 109 
3.151 1.713 0.431 38 255 0 99 
3.152 1.717 0.425 29 255 0 97 
3.151 1.719 0.419 21 255 0 95 
3.147 1.721 0.412 8 255 0 92 
3.149 1.725 0.406 21 255 0 95 
3.15 1.728 0.4 0 255 17 86 
3.146 1.729 0.393 0 255 34 82 
3.139 1.738 0.367 0 255 72 73 
3.141 1.742 0.361 0 255 80 71 
3.141 1.744 0.354 0 255 80 71 
3.14 1.747 0.347 0 255 80 71 
3.139 1.75 0.341 0 255 80 71 
3.137 1.751 0.334 0 255 85 70 
3.14 1.756 0.328 0 255 89 69 
3.138 1.758 0.321 0 255 97 67 
3.133 1.758 0.314 0 255 110 64 
3.14 1.765 0.308 0 255 119 62 
3.135 1.764 0.301 0 255 119 62 
3.143 1.772 0.295 0 255 63 75 
3.144 1.776 0.289 0 255 38 81 
3.15 1.781 0.281 0 255 25 84 
3.142 1.78 0.275 0 255 119 62 
3.145 1.784 0.267 0 255 238 34 
3.187 1.725 0.204 0 255 29 83 
3.185 1.721 0.211 97 255 0 113 
3.191 1.712 0.23 76 255 0 108 
3.186 1.705 0.236 25 255 0 96 
3.186 1.702 0.242 0 255 29 83 
3.184 1.689 0.261 0 255 119 62 
3.186 1.686 0.267 0 255 114 63 
3.182 1.681 0.274 0 255 97 67 
3.184 1.678 0.281 0 255 89 69 
3.19 1.677 0.288 0 255 72 73 
3.191 1.675 0.294 0 255 46 79 
3.192 1.672 0.3 0 255 17 86 
3.195 1.662 0.319 46 255 0 101 
3.2 1.643 0.357 46 255 0 101 
3.201 1.64 0.363 46 255 0 101 
3.204 1.626 0.395 0 255 17 86 
3.204 1.623 0.401 0 255 29 83 
3.198 1.614 0.412 0 255 25 84 
3.197 1.611 0.418 0 255 55 77 
3.198 1.608 0.424 0 255 55 77 
3.198 1.605 0.43 0 255 55 77 
3.199 1.602 0.437 0 255 55 77 
3.2 1.6 0.443 0 255 25 84 
3.201 1.597 0.449 0 255 25 84 
3.207 1.597 0.456 0 255 21 85 
3.209 1.595 0.462 0 255 17 86 
3.207 1.592 0.468 0 255 12 87 
3.212 1.591 0.474 8 255 0 92 
3.214 1.589 0.481 4 255 0 91 
3.212 1.586 0.486 8 255 0 92 
3.213 1.584 0.493 0 255 4 89 
3.203 1.574 0.504 0 255 25 84 
3.208 1.571 0.516 0 255 42 80 
3.206 1.547 0.573 0 255 51 78 
3.206 1.545 0.579 0 255 51 78 
3.209 1.544 0.585 0 255 63 75 
3.209 1.542 0.591 0 255 63 75 
3.219 1.54 0.61 0 255 17 86 
3.215 1.523 0.652 4 255 0 91 
3.213 1.521 0.658 4 255 0 91 
3.219 1.522 0.664 4 255 0 91 
3.22 1.52 0.67 0 255 0 90 
3.216 1.517 0.674 0 255 8 88 
3.219 1.516 0.68 0 255 0 90 
3.218 1.515 0.686 0 255 0 90 
3.212 1.509 0.695 0 255 38 81 
3.212 1.508 0.7 0 255 51 78 
3.209 1.501 0.72 0 255 131 59 
3.212 1.501 0.726 0 255 140 57 
3.209 1.498 0.73 0 255 144 56 
3.205 1.496 0.736 0 255 153 54 
3.209 1.496 0.741 0 255 148 55 
3.208 1.494 0.746 0 255 144 56 
3.516 1.061 0.314 0 76 255 9 
3.509 1.064 0.313 0 255 199 43 
3.505 1.067 0.312 0 255 55 77 
3.506 1.072 0.312 0 255 38 81 
3.503 1.077 0.311 0 255 29 83 
3.502 1.081 0.311 0 255 29 83 
3.494 1.095 0.309 0 255 25 84 
3.491 1.099 0.308 0 255 34 82 
3.49 1.103 0.307 0 255 55 77 
3.489 1.109 0.307 0 255 68 74 
3.488 1.114 0.306 0 255 68 74 
3.485 1.118 0.305 0 255 97 67 
3.482 1.123 0.304 0 255 114 63 
3.48 1.127 0.304 0 255 119 62 
3.474 1.131 0.302 0 255 144 56 
3.471 1.136 0.301 0 255 157 53 
3.47 1.142 0.301 0 255 174 49 
3.466 1.145 0.299 0 255 195 44 
3.467 1.151 0.299 0 255 182 47 
3.465 1.156 0.297 0 255 136 58 
3.461 1.161 0.296 0 255 68 74 
3.461 1.166 0.295 0 255 59 76 
3.451 1.174 0.292 0 255 34 82 
3.451 1.18 0.291 0 255 25 84 
3.445 1.183 0.289 0 255 4 89 
3.443 1.189 0.288 0 255 4 89 
3.441 1.194 0.287 0 255 0 90 
3.439 1.199 0.286 0 255 0 90 
3.435 1.203 0.284 0 255 8 88 
3.436 1.21 0.283 0 255 0 90 
3.434 1.215 0.282 0 255 0 90 
3.43 1.22 0.28 0 255 8 88 
3.429 1.225 0.279 0 255 8 88 
3.404 1.259 0.267 0 221 255 26 
3.402 1.265 0.264 0 221 255 26 
3.401 1.271 0.263 0 212 255 25 
3.398 1.275 0.261 0 221 255 26 
3.396 1.281 0.259 0 221 255 26 
3.388 1.297 0.254 0 221 255 26 
3.385 1.302 0.252 0 221 255 26 
3.381 1.307 0.25 0 229 255 27 
3.379 1.312 0.248 0 238 255 28 
3.374 1.318 0.246 0 238 255 28 
3.375 1.324 0.244 0 238 255 28 
3.375 1.331 0.242 0 255 212 40 
3.373 1.337 0.24 0 255 72 73 
3.374 1.343 0.238 0 255 4 89 
3.372 1.349 0.236 0 255 4 89 
3.367 1.354 0.234 0 255 4 89 
3.368 1.36 0.232 0 255 4 89 
3.362 1.365 0.229 0 255 0 90 
3.36 1.371 0.226 0 255 0 90 
3.361 1.377 0.224 0 255 8 88 
3.36 1.383 0.222 0 255 4 89 
3.355 1.389 0.22 0 255 4 89 
3.355 1.395 0.218 0 255 8 88 
3.349 1.406 0.213 0 255 63 75 
3.344 1.418 0.208 0 255 195 44 
3.34 1.422 0.205 0 229 255 27 
3.334 1.427 0.203 0 85 255 10 
3.12 1.774 0.36 0 255 140 57 
3.124 1.773 0.381 0 255 51 78 
3.124 1.772 0.388 0 255 34 82 
3.125 1.771 0.395 0 255 12 87 
3.123 1.768 0.409 221 255 0 142 
3.122 1.766 0.416 242 255 0 147 
3.123 1.765 0.423 199 255 0 137 
3.118 1.762 0.429 255 252 0 150 
3.118 1.762 0.436 131 255 0 121 
3.117 1.76 0.442 255 252 0 150 
3.119 1.76 0.449 255 252 0 150 
3.115 1.757 0.456 199 255 0 137 
3.114 1.756 0.462 199 255 0 137 
3.111 1.754 0.469 255 252 0 150 
3.114 1.754 0.476 255 252 0 150 
3.109 1.751 0.482 255 252 0 150 
3.109 1.75 0.488 255 252 0 150 
3.111 1.75 0.495 131 255 0 121 
3.114 1.751 0.503 0 255 55 77 
3.113 1.75 0.509 0 255 38 81 
3.107 1.747 0.515 0 255 46 79 
3.108 1.746 0.522 0 255 34 82 
3.106 1.745 0.528 0 255 25 84 
3.106 1.744 0.534 0 255 25 84 
3.106 1.743 0.547 0 255 34 82 
3.107 1.743 0.554 0 255 29 83 
3.108 1.743 0.561 0 255 38 81 
3.105 1.742 0.567 0 255 76 72 
3.109 1.743 0.58 0 255 80 71 
3.107 1.74 0.631 55 255 0 103 
3.107 1.74 0.637 46 255 0 101 
3.104 1.738 0.642 29 255 0 97 
3.106 1.738 0.649 17 255 0 94 
3.102 1.736 0.654 29 255 0 97 
3.106 1.738 0.661 8 255 0 92 
3.09 1.732 0.735 0 255 110 64 
3.087 1.73 0.74 0 255 114 63 
3.084 1.73 0.745 0 255 114 63 
3.084 1.73 0.751 0 255 119 62 
3.083 1.729 0.756 0 255 119 62 
3.087 1.731 0.762 0 255 153 54 
3.076 1.728 0.771 0 255 204 42 
3.079 1.729 0.777 0 255 216 39 
3.075 1.727 0.782 0 255 199 43 
3.078 1.73 0.788 0 255 221 38 
3.454 1.203 0.207 0 255 195 44 
3.46 1.2 0.21 0 255 93 68 
3.463 1.196 0.213 0 255 34 82 
3.458 1.188 0.216 0 255 4 89 
3.457 1.173 0.224 12 255 0 93 
3.458 1.169 0.227 12 255 0 93 
3.463 1.165 0.23 0 255 0 90 
3.463 1.16 0.233 0 255 34 82 
3.466 1.156 0.236 0 255 144 56 
3.472 1.152 0.24 0 221 255 26 
3.468 1.147 0.243 0 161 255 19 
3.468 1.142 0.246 0 153 255 18 
3.472 1.138 0.249 0 153 255 18 
3.472 1.134 0.252 0 144 255 17 
3.473 1.129 0.255 0 144 255 17 
3.479 1.126 0.258 0 144 255 17 
3.479 1.122 0.261 0 144 255 17 
3.483 1.119 0.264 0 136 255 16 
3.485 1.109 0.27 0 136 255 16 
3.487 1.102 0.276 0 136 255 16 
3.493 1.099 0.28 0 136 255 16 
3.489 1.093 0.282 0 144 255 17 
3.489 1.09 0.285 0 136 255 16 
3.495 1.087 0.289 0 136 255 16 
3.507 1.07 0.305 0 255 216 39 
3.517 1.069 0.308 0 255 238 34 
3.513 1.065 0.311 0 153 255 18 
3.514 1.061 0.314 0 25 255 3 
3.464 1.045 0.615 0 34 255 4 
3.467 1.05 0.616 0 68 255 8 
3.466 1.053 0.615 0 93 255 11 
3.466 1.056 0.615 0 110 255 13 
3.46 1.058 0.614 0 119 255 14 
3.46 1.061 0.614 0 127 255 15 
3.463 1.073 0.613 0 170 255 20 
3.456 1.075 0.611 0 178 255 21 
3.456 1.079 0.611 0 195 255 23 
3.453 1.081 0.61 0 212 255 25 
3.458 1.086 0.61 0 255 255 30 
3.453 1.093 0.609 0 255 221 38 
3.452 1.096 0.608 0 255 204 42 
3.445 1.098 0.606 0 255 182 47 
3.442 1.101 0.605 0 255 161 52 
3.444 1.105 0.604 0 255 157 53 
3.445 1.109 0.604 0 255 119 62 
3.44 1.117 0.602 0 255 93 68 
3.439 1.119 0.601 0 255 68 74 
3.433 1.121 0.599 0 255 63 75 
3.433 1.126 0.598 0 255 59 76 
3.426 1.141 0.593 0 255 229 36 
3.419 1.142 0.591 0 161 255 19 
3.417 1.146 0.589 0 153 255 18 
3.417 1.15 0.588 0 161 255 19 
3.414 1.153 0.587 0 170 255 20 
3.412 1.158 0.585 0 170 255 20 
3.41 1.162 0.584 0 170 255 20 
3.409 1.166 0.582 0 170 255 20 
3.407 1.169 0.58 0 170 255 20 
3.406 1.173 0.578 0 170 255 20 
3.398 1.189 0.571 0 187 255 22 
3.395 1.192 0.569 0 187 255 22 
3.398 1.198 0.568 0 178 255 21 
3.392 1.201 0.565 0 187 255 22 
3.389 1.204 0.563 0 195 255 23 
3.385 1.231 0.552 0 255 131 59 
3.385 1.235 0.55 0 255 12 87 
3.381 1.239 0.547 0 255 17 86 
3.379 1.243 0.545 0 255 8 88 
3.374 1.246 0.542 0 255 4 89 
3.373 1.25 0.54 0 255 4 89 
3.374 1.256 0.538 0 255 17 86 
3.371 1.26 0.536 0 255 21 85 
3.369 1.264 0.533 0 255 4 89 
3.373 1.27 0.531 0 255 21 85 
3.366 1.273 0.527 0 255 4 89 
3.364 1.276 0.525 0 255 8 88 
3.364 1.282 0.522 0 255 4 89 
3.363 1.286 0.52 0 255 4 89 
3.355 1.288 0.516 0 255 38 81 
3.359 1.3 0.512 0 255 8 88 
3.355 1.303 0.509 0 255 17 86 
3.349 1.307 0.505 0 255 59 76 
3.348 1.312 0.503 0 255 80 71 
3.341 1.319 0.496 0 255 127 60 
3.344 1.325 0.494 0 255 85 70 
3.321 1.38 0.455 0 255 25 84 
3.319 1.385 0.452 0 255 25 84 
3.317 1.389 0.448 0 255 21 85 
3.316 1.394 0.445 0 255 12 87 
3.312 1.408 0.434 0 255 25 84 
3.307 1.413 0.43 0 255 38 81 
3.305 1.417 0.427 0 255 102 66 
3.287 1.426 0.414 0 255 170 50 
3.293 1.433 0.411 0 255 148 55 
3.288 1.437 0.407 0 255 157 53 
3.287 1.442 0.403 0 255 153 54 
3.287 1.448 0.4 0 255 123 61 
3.293 1.461 0.393 0 255 38 81 
3.288 1.464 0.389 0 255 34 82 
3.286 1.469 0.385 0 255 21 85 
3.284 1.474 0.381 0 255 34 82 
3.286 1.481 0.376 0 255 12 87 
3.284 1.491 0.368 0 255 12 87 
3.275 1.498 0.359 0 255 17 86 
3.268 1.507 0.351 0 255 51 78 
3.26 1.519 0.337 0 255 131 59 
3.254 1.523 0.333 0 255 119 62 
3.251 1.527 0.328 0 255 131 59 
3.257 1.535 0.325 0 255 127 60 
3.253 1.539 0.32 0 255 131 59 
3.249 1.566 0.298 0 255 76 72 
3.246 1.57 0.293 0 255 51 78 
3.246 1.581 0.283 0 255 17 86 
3.244 1.586 0.279 0 255 17 86 
3.242 1.591 0.274 0 255 17 86 
3.24 1.596 0.269 0 255 17 86 
3.237 1.6 0.264 0 255 51 78 
3.233 1.604 0.259 0 255 72 73 
3.228 1.607 0.254 0 255 131 59 
3.227 1.613 0.249 0 255 136 58 
3.22 1.622 0.239 0 255 144 56 
3.218 1.626 0.234 0 255 144 56 
3.216 1.631 0.229 0 255 144 56 
3.216 1.642 0.22 0 255 153 54 
3.21 1.644 0.214 0 255 165 51 
3.207 1.649 0.209 0 255 165 51 
3.206 1.654 0.204 0 255 170 50 
3.209 1.661 0.2 0 255 238 34 
3.291 1.522 0.205 0 76 255 9 
3.287 1.514 0.209 0 153 255 18 
3.288 1.509 0.214 0 255 246 32 
3.288 1.503 0.218 0 255 204 42 
3.294 1.477 0.24 0 255 170 50 
3.296 1.472 0.244 0 255 170 50 
3.304 1.458 0.259 0 255 204 42 
3.303 1.452 0.263 0 255 170 50 
3.304 1.447 0.267 0 255 170 50 
3.306 1.443 0.272 0 255 170 50 
3.308 1.438 0.276 0 255 170 50 
3.308 1.432 0.28 0 255 170 50 
3.314 1.43 0.285 0 255 165 51 
3.317 1.426 0.29 0 255 102 66 
3.325 1.424 0.295 0 255 29 83 
3.323 1.418 0.299 0 255 46 79 
3.324 1.413 0.303 0 255 110 64 
3.324 1.407 0.308 0 255 157 53 
3.319 1.401 0.311 0 255 170 50 
3.328 1.399 0.317 0 255 191 45 
3.325 1.393 0.32 0 255 204 42 
3.331 1.39 0.325 0 255 191 45 
3.339 1.345 0.37 0 255 204 42 
3.344 1.343 0.374 0 255 212 40 
3.345 1.338 0.379 0 255 216 39 
3.347 1.334 0.383 0 255 216 39 
3.349 1.331 0.388 0 255 140 57 
3.358 1.329 0.393 0 255 51 78 
3.356 1.325 0.397 0 255 17 86 
3.363 1.323 0.402 0 255 63 75 
3.363 1.298 0.427 0 255 233 35 
3.365 1.286 0.44 0 255 233 35 
3.367 1.283 0.444 0 255 233 35 
3.365 1.278 0.448 0 255 233 35 
3.368 1.276 0.453 0 255 238 34 
3.369 1.265 0.466 0 255 238 34 
3.375 1.263 0.471 0 255 242 33 
3.374 1.259 0.475 0 255 246 32 
3.376 1.256 0.479 0 255 246 32 
3.376 1.249 0.487 0 255 246 32 
3.376 1.246 0.491 0 238 255 28 
3.39 1.24 0.505 0 255 144 56 
3.389 1.237 0.509 0 255 131 59 
3.387 1.233 0.513 0 255 174 49 
3.388 1.23 0.517 0 255 229 36 
3.393 1.199 0.561 0 204 255 24 
3.396 1.197 0.566 0 195 255 23 
3.395 1.194 0.569 0 187 255 22 
3.397 1.192 0.573 0 178 255 21 
3.399 1.189 0.578 0 195 255 23 
3.404 1.174 0.605 0 255 170 50 
3.404 1.172 0.61 0 255 102 66 
3.407 1.172 0.614 0 255 25 84 
3.406 1.169 0.618 0 255 4 89 
3.406 1.166 0.621 0 255 0 90 
3.405 1.165 0.625 0 255 0 90 
3.409 1.163 0.629 8 255 0 92 
3.405 1.158 0.636 0 255 0 90 
3.409 1.158 0.64 8 255 0 92 
3.406 1.155 0.643 0 255 4 89 
3.406 1.153 0.646 0 255 4 89 
3.405 1.151 0.65 0 255 4 89 
3.408 1.151 0.654 8 255 0 92 
3.404 1.147 0.657 0 255 0 90 
3.408 1.147 0.661 8 255 0 92 
3.404 1.144 0.664 0 255 0 90 
3.414 1.143 0.672 0 255 17 86 
3.411 1.142 0.675 0 255 34 82 
3.417 1.142 0.68 0 255 46 79 
3.415 1.14 0.683 0 255 63 75 
3.413 1.139 0.686 0 255 80 71 
3.417 1.132 0.707 0 255 208 41 
3.415 1.13 0.709 0 255 161 52 
3.416 1.13 0.713 0 255 97 67 
3.417 1.13 0.716 0 255 38 81 
3.419 1.13 0.72 0 255 21 85 
3.409 1.125 0.721 0 255 17 86 
3.409 1.125 0.724 0 255 17 86 
3.408 1.124 0.727 0 255 17 86 
3.411 1.124 0.731 0 255 4 89 
3.409 1.122 0.733 0 255 12 87 
3.408 1.121 0.736 0 255 17 86 
3.407 1.12 0.739 0 255 17 86 
3.408 1.12 0.742 0 255 12 87 
3.417 1.122 0.747 0 255 8 88 
3.417 1.122 0.75 0 255 8 88 
3.416 1.121 0.753 0 255 8 88 
3.406 1.118 0.753 0 255 12 87 
3.406 1.118 0.756 0 255 12 87 
3.405 1.117 0.759 0 255 12 87 
3.402 1.115 0.775 0 255 12 87 
3.402 1.115 0.777 0 255 12 87 
3.411 1.118 0.782 0 255 8 88 
3.41 1.117 0.784 0 255 8 88 
3.41 1.118 0.787 0 255 8 88 
3.409 1.118 0.789 0 255 8 88 
3.406 1.117 0.791 0 255 29 83 
3.407 1.117 0.794 0 255 12 87 
3.406 1.117 0.796 0 255 21 85 
3.403 1.116 0.798 0 255 38 81 
3.404 1.117 0.8 0 255 89 69 
3.407 1.119 0.804 0 255 127 60 
3.41 1.12 0.807 0 255 195 44 
3.289 1.352 0.8 0 51 255 6 
3.279 1.351 0.795 0 76 255 9 
3.284 1.357 0.794 0 102 255 12 
3.257 1.384 0.763 0 255 255 30 
3.257 1.387 0.76 0 255 246 32 
3.26 1.393 0.757 0 255 221 38 
3.258 1.396 0.754 0 255 157 53 
3.251 1.439 0.715 0 255 25 84 
3.251 1.443 0.712 0 255 17 86 
3.251 1.447 0.708 0 255 38 81 
3.244 1.448 0.703 0 255 76 72 
3.244 1.452 0.7 0 255 102 66 
3.236 1.46 0.688 0 255 165 51 
3.225 1.464 0.678 0 255 170 50 
3.226 1.468 0.674 0 255 165 51 
3.229 1.474 0.671 0 255 153 54 
3.229 1.477 0.667 0 255 153 54 
3.23 1.494 0.651 0 255 102 66 
3.227 1.496 0.647 0 255 51 78 
3.233 1.503 0.644 0 255 42 80 
3.234 1.507 0.64 0 255 34 82 
3.23 1.51 0.635 0 255 34 82 
3.207 1.54 0.587 0 255 89 69 
3.207 1.543 0.583 0 255 89 69 
3.206 1.547 0.578 0 255 85 70 
3.206 1.55 0.573 0 255 89 69 
3.199 1.564 0.553 0 255 85 70 
3.2 1.568 0.549 0 255 80 71 
3.197 1.579 0.533 0 255 80 71 
3.194 1.581 0.528 0 255 72 73 
3.196 1.586 0.523 0 255 51 78 
3.196 1.59 0.517 0 255 46 79 
3.198 1.603 0.502 0 255 25 84 
3.198 1.607 0.497 0 255 29 83 
3.192 1.609 0.491 0 255 34 82 
3.19 1.611 0.486 0 255 46 79 
3.186 1.613 0.48 0 255 38 81 
3.185 1.617 0.474 0 255 38 81 
3.184 1.632 0.453 0 255 46 79 
3.182 1.639 0.442 0 255 46 79 
3.176 1.644 0.43 0 255 29 83 
3.179 1.649 0.425 0 255 25 84 
3.178 1.653 0.419 0 255 25 84 
3.176 1.655 0.413 0 255 55 77 
3.172 1.658 0.407 0 255 29 83 
3.177 1.664 0.402 0 255 51 78 
3.179 1.676 0.385 0 255 12 87 
3.181 1.681 0.379 0 255 4 89 
3.176 1.683 0.373 0 255 17 86 
3.172 1.685 0.365 0 255 46 79 
3.172 1.688 0.359 0 255 34 82 
3.166 1.697 0.341 0 255 80 71 
3.167 1.701 0.335 0 255 89 69 
3.162 1.703 0.328 0 255 93 68 
3.166 1.715 0.31 0 255 102 66 
3.161 1.721 0.298 0 255 89 69 
3.162 1.725 0.291 0 255 34 82 
3.165 1.731 0.286 4 255 0 91 
3.167 1.736 0.28 25 255 0 96 
3.168 1.739 0.273 17 255 0 94 
3.161 1.74 0.266 4 255 0 91 
3.163 1.745 0.26 4 255 0 91 
3.161 1.747 0.254 8 255 0 92 
3.162 1.751 0.247 25 255 0 96 
3.161 1.755 0.241 25 255 0 96 
3.156 1.755 0.234 46 255 0 101 
3.154 1.758 0.227 46 255 0 101 
3.16 1.764 0.221 38 255 0 99 
3.157 1.767 0.215 17 255 0 94 
3.155 1.77 0.208 25 255 0 96 
3.157 1.774 0.202 0 255 21 85 
3.199 1.678 0.202 0 255 255 30 
3.201 1.67 0.215 0 255 153 54 
3.203 1.667 0.221 0 255 153 54 
3.208 1.664 0.227 0 255 144 56 
3.204 1.657 0.232 0 255 144 56 
3.206 1.654 0.238 0 255 119 62 
3.21 1.651 0.245 0 255 119 62 
3.209 1.646 0.25 0 255 119 62 
3.212 1.644 0.257 0 255 127 60 
3.214 1.639 0.262 0 255 119 62 
3.21 1.633 0.268 0 255 114 63 
3.211 1.629 0.274 0 255 106 65 
3.21 1.624 0.279 0 255 89 69 
3.214 1.622 0.286 0 255 102 66 
3.219 1.62 0.292 0 255 63 75 
3.226 1.577 0.357 0 255 63 75 
3.227 1.574 0.362 0 255 63 75 
3.225 1.569 0.368 0 255 80 71 
3.225 1.566 0.374 0 255 80 71 
3.235 1.559 0.392 0 255 55 77 
3.243 1.551 0.41 17 255 0 94 
3.241 1.546 0.415 8 255 0 92 
3.244 1.543 0.421 25 255 0 96 
3.24 1.539 0.426 17 255 0 94 
3.243 1.536 0.432 8 255 0 92 
3.246 1.534 0.438 25 255 0 96 
3.247 1.531 0.443 25 255 0 96 
3.25 1.528 0.45 25 255 0 96 
3.25 1.518 0.466 17 255 0 94 
3.253 1.482 0.533 4 255 0 91 
3.259 1.443 0.617 0 255 136 58 
3.259 1.441 0.622 0 255 136 58 
3.256 1.432 0.637 0 255 144 56 
3.254 1.427 0.646 0 255 153 54 
3.255 1.426 0.651 0 255 157 53 
3.253 1.422 0.656 0 255 178 48 
3.257 1.422 0.662 0 255 165 51 
3.252 1.418 0.666 0 255 178 48 
3.252 1.416 0.671 0 255 178 48 
3.262 1.413 0.692 0 255 187 46 
3.26 1.411 0.697 0 255 153 54 
3.264 1.411 0.702 0 255 110 64 
3.262 1.393 0.753 0 255 221 38 
3.26 1.39 0.758 0 255 221 38 
3.257 1.389 0.762 0 255 238 34 
3.26 1.388 0.767 0 255 250 31 
3.108 1.676 0.788 0 255 216 39 
3.098 1.676 0.777 0 255 187 46 
3.101 1.68 0.773 0 255 191 45 
3.103 1.683 0.768 0 255 195 44 
3.101 1.684 0.763 0 255 199 43 
3.101 1.695 0.744 0 255 157 53 
3.104 1.699 0.74 0 255 140 57 
3.106 1.734 0.66 0 255 17 86 
3.106 1.736 0.654 0 255 17 86 
3.109 1.74 0.649 4 255 0 91 
3.107 1.741 0.643 0 255 4 89 
3.103 1.741 0.637 21 255 0 95 
3.104 1.744 0.631 29 255 0 97 
3.104 1.746 0.625 29 255 0 97 
3.094 1.757 0.576 0 255 136 58 
3.159 1.787 0.198 0 255 110 64 
3.151 1.78 0.204 29 255 0 97 
3.151 1.777 0.212 46 255 0 101 
3.155 1.774 0.227 123 255 0 119 
3.153 1.771 0.233 123 255 0 119 
3.154 1.769 0.24 123 255 0 119 
3.156 1.767 0.247 110 255 0 116 
3.156 1.765 0.255 38 255 0 99 
3.157 1.763 0.262 38 255 0 99 
3.154 1.759 0.268 29 255 0 97 
3.152 1.756 0.275 55 255 0 103 
3.153 1.753 0.282 46 255 0 101 
3.155 1.752 0.289 8 255 0 92 
3.152 1.748 0.296 0 255 29 83 
3.149 1.744 0.302 0 255 89 69 
3.148 1.741 0.309 0 255 85 70 
3.149 1.739 0.316 0 255 85 70 
3.149 1.737 0.322 0 255 85 70 
3.149 1.735 0.329 0 255 80 71 
3.146 1.731 0.336 0 255 72 73 
3.153 1.732 0.343 0 255 42 80 
3.148 1.729 0.35 0 255 25 84 
3.153 1.728 0.357 0 255 42 80 
3.153 1.726 0.364 0 255 42 80 
3.148 1.722 0.37 0 255 38 81 
3.149 1.72 0.377 0 255 55 77 
3.157 1.717 0.405 46 255 0 101 
3.153 1.707 0.431 221 255 0 142 
3.149 1.704 0.437 148 255 0 125 
3.15 1.702 0.443 136 255 0 122 
3.148 1.7 0.45 131 255 0 121 
3.151 1.699 0.457 199 255 0 137 
3.146 1.685 0.502 255 250 0 151 
3.142 1.682 0.508 255 252 0 150 
3.145 1.68 0.521 255 252 0 150 
3.145 1.679 0.527 255 252 0 150 
3.144 1.677 0.534 255 247 0 152 
3.145 1.669 0.578 255 252 0 150 
3.143 1.667 0.584 106 255 0 115 
3.14 1.657 0.632 0 255 55 77 
3.137 1.643 0.753 25 255 0 96 
3.137 1.643 0.758 17 255 0 94 
3.137 1.643 0.764 0 255 8 88 
3.136 1.641 0.769 17 255 0 94 
3.135 1.64 0.774 17 255 0 94 
3.133 1.64 0.779 17 255 0 94 
3.479 1.06 0.495 0 85 255 10 
3.476 1.063 0.493 0 102 255 12 
3.475 1.067 0.492 0 102 255 12 
3.475 1.072 0.492 0 110 255 13 
3.472 1.084 0.49 0 110 255 13 
3.466 1.086 0.488 0 119 255 14 
3.467 1.092 0.487 0 127 255 15 
3.465 1.095 0.486 0 127 255 15 
3.461 1.099 0.485 0 127 255 15 
3.454 1.114 0.481 0 144 255 17 
3.444 1.126 0.477 0 161 255 19 
3.443 1.13 0.475 0 161 255 19 
3.44 1.134 0.474 0 170 255 20 
3.441 1.139 0.473 0 170 255 20 
3.445 1.145 0.473 0 255 225 37 
3.444 1.15 0.471 0 255 85 70 
3.429 1.17 0.462 0 255 0 90 
3.427 1.173 0.46 0 255 8 88 
3.425 1.178 0.459 0 255 8 88 
3.426 1.183 0.457 0 255 0 90 
3.42 1.197 0.452 0 255 8 88 
3.416 1.2 0.45 4 255 0 91 
3.417 1.206 0.449 0 255 8 88 
3.406 1.223 0.44 0 255 17 86 
3.403 1.228 0.438 0 255 21 85 
3.403 1.233 0.437 0 255 42 80 
3.403 1.238 0.435 0 255 123 61 
3.393 1.24 0.432 0 255 238 34 
3.388 1.244 0.429 0 229 255 27 
3.384 1.248 0.427 0 229 255 27 
3.384 1.254 0.425 0 229 255 27 
3.381 1.257 0.422 0 238 255 28 
3.379 1.262 0.42 0 238 255 28 
3.375 1.266 0.417 0 255 255 30 
3.366 1.319 0.393 0 255 21 85 
3.353 1.332 0.384 0 255 178 48 
3.344 1.34 0.377 0 255 221 38 
3.347 1.347 0.375 0 255 229 36 
3.336 1.349 0.371 0 255 229 36 
3.336 1.372 0.359 0 255 221 38 
3.313 1.398 0.34 0 255 216 39 
3.317 1.406 0.337 0 255 204 42 
3.317 1.411 0.334 0 255 204 42 
3.316 1.418 0.331 0 255 161 52 
3.314 1.422 0.328 0 255 89 69 
3.316 1.429 0.325 0 255 25 84 
3.316 1.435 0.322 0 255 8 88 
3.314 1.441 0.318 0 255 21 85 
3.309 1.45 0.311 0 255 12 87 
3.307 1.456 0.308 0 255 25 84 
3.304 1.461 0.304 0 255 42 80 
3.302 1.466 0.3 0 255 55 77 
3.292 1.474 0.292 0 255 136 58 
3.29 1.48 0.288 0 255 157 53 
3.277 1.499 0.273 0 255 157 53 
3.277 1.511 0.265 0 255 140 57 
3.279 1.525 0.258 0 255 12 87 
3.275 1.535 0.251 0 255 12 87 
3.273 1.541 0.247 0 255 12 87 
3.257 1.578 0.217 0 255 8 88 
3.253 1.583 0.213 0 255 0 90 
3.254 1.589 0.209 0 255 12 87 
3.25 1.593 0.205 0 255 42 80 
3.341 1.424 0.206 0 76 255 9 
3.343 1.42 0.21 0 229 255 27 
3.346 1.414 0.214 0 255 157 53 
3.345 1.408 0.217 0 255 34 82 
3.346 1.403 0.221 21 255 0 95 
3.348 1.397 0.225 21 255 0 95 
3.351 1.393 0.229 29 255 0 97 
3.35 1.387 0.232 38 255 0 99 
3.354 1.382 0.236 29 255 0 97 
3.356 1.378 0.24 38 255 0 99 
3.358 1.372 0.244 38 255 0 99 
3.359 1.367 0.248 29 255 0 97 
3.361 1.362 0.253 29 255 0 97 
3.363 1.358 0.256 38 255 0 99 
3.363 1.352 0.26 21 255 0 95 
3.365 1.347 0.264 29 255 0 97 
3.37 1.343 0.268 0 255 8 88 
3.372 1.339 0.272 0 255 85 70 
3.373 1.333 0.276 0 255 208 41 
3.368 1.327 0.279 0 255 233 35 
3.369 1.322 0.283 0 255 233 35 
3.384 1.306 0.299 0 255 182 47 
3.388 1.297 0.307 0 255 51 78 
3.393 1.295 0.311 0 255 29 83 
3.39 1.288 0.314 4 255 0 91 
3.391 1.284 0.318 8 255 0 92 
3.392 1.279 0.322 4 255 0 91 
3.394 1.276 0.326 8 255 0 92 
3.404 1.274 0.33 17 255 0 94 
3.403 1.268 0.334 17 255 0 94 
3.413 1.218 0.38 0 229 255 27 
3.409 1.212 0.383 0 212 255 25 
3.423 1.201 0.4 0 255 246 32 
3.425 1.197 0.403 0 255 187 46 
3.423 1.193 0.407 0 255 123 61 
3.428 1.19 0.411 0 255 38 81 
3.428 1.186 0.415 0 255 8 88 
3.432 1.184 0.419 12 255 0 93 
3.431 1.18 0.422 0 255 0 90 
3.433 1.177 0.426 12 255 0 93 
3.435 1.173 0.43 12 255 0 93 
3.434 1.169 0.434 12 255 0 93 
3.435 1.166 0.437 12 255 0 93 
3.436 1.162 0.442 12 255 0 93 
3.447 1.149 0.461 0 255 191 45 
3.437 1.136 0.471 0 170 255 20 
3.441 1.134 0.475 0 170 255 20 
3.443 1.132 0.479 0 170 255 20 
3.444 1.129 0.482 0 170 255 20 
3.441 1.125 0.485 0 161 255 19 
3.445 1.123 0.489 0 161 255 19 
3.458 1.112 0.509 0 255 170 50 
3.459 1.11 0.512 0 255 93 68 
3.456 1.106 0.515 0 255 21 85 
3.454 1.103 0.518 0 255 12 87 
3.452 1.101 0.521 0 255 4 89 
3.453 1.098 0.525 4 255 0 91 
3.456 1.087 0.542 0 255 4 89 
3.455 1.084 0.545 0 255 12 87 
3.456 1.082 0.549 0 255 4 89 
3.456 1.08 0.552 0 255 4 89 
3.456 1.078 0.556 0 255 4 89 
3.456 1.076 0.559 0 255 4 89 
3.47 1.076 0.568 0 255 21 85 
3.474 1.07 0.581 0 255 0 90 
3.472 1.068 0.584 0 255 8 88 
3.47 1.059 0.601 0 255 55 77 
3.47 1.057 0.604 0 255 114 63 
3.467 1.055 0.606 0 255 204 42 
3.473 1.055 0.61 0 229 255 27 
3.467 1.052 0.612 0 136 255 16 
3.47 1.052 0.616 0 59 255 7 
3.469 1.05 0.619 0 25 255 3 
3.461 1.042 0.743 0 51 255 6 
3.458 1.043 0.744 0 85 255 10 
3.463 1.046 0.747 0 136 255 16 
3.462 1.046 0.749 0 187 255 22 
3.46 1.046 0.75 0 255 250 31 
3.453 1.046 0.75 0 255 204 42 
3.456 1.047 0.752 0 255 161 52 
3.454 1.049 0.754 0 255 110 64 
3.446 1.047 0.753 0 255 80 71 
3.445 1.048 0.755 0 255 46 79 
3.444 1.05 0.756 0 255 38 81 
3.453 1.054 0.76 0 255 25 84 
3.447 1.054 0.76 0 255 12 87 
3.447 1.055 0.761 0 255 4 89 
3.444 1.055 0.762 0 255 8 88 
3.445 1.057 0.764 0 255 12 87 
3.443 1.058 0.765 0 255 8 88 
3.445 1.061 0.766 0 255 4 89 
3.441 1.061 0.767 0 255 8 88 
3.438 1.061 0.767 0 255 8 88 
3.44 1.064 0.769 0 255 8 88 
3.441 1.066 0.77 0 255 0 90 
3.439 1.068 0.771 0 255 8 88 
3.438 1.069 0.772 0 255 21 85 
3.434 1.07 0.772 0 255 8 88 
3.434 1.072 0.773 0 255 8 88 
3.435 1.074 0.775 0 255 12 87 
3.43 1.074 0.775 0 255 21 85 
3.431 1.077 0.775 0 255 8 88 
3.433 1.079 0.776 0 255 12 87 
3.43 1.081 0.776 0 255 8 88 
3.429 1.083 0.777 0 255 8 88 
3.429 1.085 0.778 0 255 8 88 
3.428 1.087 0.778 0 255 8 88 
3.426 1.088 0.778 0 255 21 85 
3.425 1.09 0.779 0 255 21 85 
3.427 1.094 0.78 0 255 12 87 
3.425 1.095 0.78 0 255 8 88 
3.422 1.096 0.78 0 255 21 85 
3.417 1.097 0.78 0 255 8 88 
3.417 1.1 0.78 0 255 8 88 
3.42 1.103 0.782 0 255 21 85 
3.416 1.104 0.781 0 255 8 88 
3.414 1.107 0.781 0 255 8 88 
3.416 1.115 0.783 0 255 21 85 
3.411 1.115 0.782 0 255 8 88 
3.411 1.118 0.782 0 255 8 88 
3.409 1.123 0.782 0 255 8 88 
3.408 1.129 0.782 0 255 34 82 
3.409 1.135 0.782 0 255 191 45 
3.406 1.137 0.781 0 246 255 29 
3.395 1.139 0.779 0 110 255 13 
3.393 1.142 0.778 0 102 255 12 
3.395 1.145 0.778 0 110 255 13 
3.39 1.147 0.777 0 119 255 14 
3.39 1.149 0.777 0 119 255 14 
3.382 1.15 0.775 0 136 255 16 
3.385 1.154 0.775 0 136 255 16 
3.384 1.158 0.774 0 136 255 16 
3.385 1.16 0.774 0 136 255 16 
3.381 1.163 0.773 0 136 255 16 
3.375 1.164 0.771 0 136 255 16 
3.374 1.167 0.77 0 136 255 16 
3.373 1.173 0.769 0 136 255 16 
3.373 1.176 0.768 0 136 255 16 
3.371 1.179 0.767 0 136 255 16 
3.375 1.183 0.766 0 144 255 17 
3.371 1.186 0.765 0 153 255 18 
3.37 1.188 0.763 0 153 255 18 
3.372 1.193 0.763 0 161 255 19 
3.368 1.195 0.761 0 161 255 19 
3.367 1.198 0.76 0 161 255 19 
3.359 1.206 0.755 0 170 255 20 
3.356 1.212 0.752 0 161 255 19 
3.358 1.221 0.75 0 255 221 38 
3.354 1.223 0.748 0 255 127 60 
3.355 1.227 0.747 0 255 29 83 
3.353 1.23 0.745 0 255 29 83 
3.353 1.234 0.744 0 255 0 90 
3.351 1.237 0.742 0 255 21 85 
3.354 1.246 0.739 0 255 8 88 
3.345 1.25 0.734 0 255 21 85 
3.343 1.254 0.732 0 255 21 85 
3.346 1.259 0.731 0 255 29 83 
3.342 1.261 0.729 0 255 17 86 
3.34 1.264 0.726 0 255 17 86 
3.337 1.271 0.722 0 255 21 85 
3.338 1.276 0.72 0 255 29 83 
3.337 1.279 0.718 0 255 29 83 
3.337 1.283 0.715 0 255 21 85 
3.338 1.287 0.714 0 255 42 80 
3.322 1.306 0.697 0 255 208 41 
3.319 1.313 0.692 0 255 174 49 
3.313 1.315 0.689 0 255 89 69 
3.314 1.319 0.686 0 255 29 83 
3.313 1.349 0.668 0 255 8 88 
3.297 1.37 0.648 0 255 38 81 
3.298 1.373 0.645 0 255 34 82 
3.295 1.381 0.638 0 255 34 82 
3.289 1.388 0.63 0 255 25 84 
3.288 1.392 0.627 0 255 25 84 
3.287 1.395 0.623 0 255 25 84 
3.283 1.399 0.619 0 255 34 82 
3.281 1.403 0.615 0 255 51 78 
3.286 1.409 0.613 0 255 72 73 
3.275 1.417 0.601 0 255 110 64 
3.273 1.422 0.597 0 255 76 72 
3.28 1.428 0.595 0 255 29 83 
3.277 1.432 0.59 0 255 42 80 
3.274 1.435 0.586 0 255 34 82 
3.274 1.439 0.583 0 255 12 87 
3.262 1.472 0.55 0 255 34 82 
3.263 1.481 0.541 0 255 12 87 
3.256 1.483 0.536 0 255 21 85 
3.252 1.486 0.531 0 255 38 81 
3.254 1.491 0.527 0 255 21 85 
3.257 1.497 0.524 0 255 29 83 
3.251 1.499 0.518 0 255 51 78 
3.247 1.502 0.513 0 255 55 77 
3.245 1.524 0.491 0 255 51 78 
3.241 1.527 0.486 0 255 38 81 
3.24 1.531 0.481 0 255 38 81 
3.239 1.535 0.477 0 255 38 81 
3.241 1.541 0.472 0 255 21 85 
3.239 1.545 0.468 0 255 21 85 
3.235 1.548 0.462 0 255 38 81 
3.237 1.553 0.458 0 255 21 85 
3.236 1.557 0.453 0 255 21 85 
3.234 1.561 0.448 0 255 21 85 
3.228 1.563 0.442 0 255 17 86 
3.226 1.567 0.437 0 255 17 86 
3.225 1.571 0.432 0 255 17 86 
3.224 1.575 0.427 0 255 17 86 
3.221 1.578 0.422 0 255 12 87 
3.229 1.586 0.417 0 255 17 86 
3.222 1.593 0.406 0 255 38 81 
3.219 1.596 0.401 0 255 38 81 
3.216 1.6 0.396 0 255 55 77 
3.214 1.603 0.39 0 255 51 78 
3.217 1.61 0.385 0 255 38 81 
3.218 1.614 0.38 0 255 17 86 
3.213 1.617 0.374 0 255 4 89 
3.212 1.621 0.369 0 255 4 89 
3.209 1.624 0.363 0 255 17 86 
3.208 1.628 0.358 0 255 17 86 
3.208 1.633 0.353 0 255 4 89 
3.211 1.639 0.348 0 255 8 88 
3.204 1.659 0.32 0 255 8 88 
3.2 1.661 0.314 4 255 0 91 
3.198 1.67 0.302 4 255 0 91 
3.19 1.675 0.29 0 255 72 73 
3.187 1.678 0.285 0 255 119 62 
3.189 1.683 0.278 0 255 127 60 
3.182 1.685 0.272 0 255 127 60 
3.185 1.691 0.266 0 255 110 64 
3.187 1.696 0.261 0 255 55 77 
3.186 1.701 0.255 0 255 38 81 
3.191 1.707 0.249 0 255 0 90 
3.185 1.709 0.243 17 255 0 94 
3.183 1.713 0.237 17 255 0 94 
3.185 1.719 0.231 4 255 0 91 
3.18 1.721 0.225 17 255 0 94 
3.182 1.726 0.219 34 255 0 98 
3.174 1.726 0.212 63 255 0 105 
3.175 1.731 0.207 25 255 0 96 
3.176 1.736 0.2 0 255 51 78 
3.227 1.63 0.202 0 255 250 31 
3.217 1.621 0.206 0 255 191 45 
3.226 1.619 0.212 0 255 187 46 
3.236 1.613 0.224 0 255 85 70 
3.239 1.609 0.229 0 255 34 82 
3.241 1.604 0.234 4 255 0 91 
3.241 1.6 0.24 34 255 0 98 
3.24 1.594 0.245 17 255 0 94 
3.241 1.59 0.25 17 255 0 94 
3.246 1.587 0.256 34 255 0 98 
3.248 1.582 0.261 34 255 0 98 
3.249 1.578 0.267 34 255 0 98 
3.253 1.564 0.284 25 255 0 96 
3.257 1.562 0.289 0 255 0 90 
3.254 1.55 0.3 0 255 51 78 
3.258 1.539 0.316 0 255 93 68 
3.254 1.532 0.32 0 255 106 65 
3.253 1.527 0.326 0 255 102 66 
3.257 1.524 0.331 0 255 110 64 
3.258 1.52 0.336 0 255 110 64 
3.262 1.517 0.342 0 255 89 69 
3.269 1.516 0.348 0 255 34 82 
3.269 1.511 0.353 0 255 17 86 
3.269 1.506 0.358 17 255 0 94 
3.272 1.503 0.364 25 255 0 96 
3.281 1.494 0.38 12 255 0 93 
3.281 1.491 0.386 12 255 0 93 
3.28 1.485 0.39 0 255 0 90 
3.282 1.482 0.396 0 255 29 83 
3.276 1.472 0.406 0 255 93 68 
3.276 1.467 0.411 0 255 127 60 
3.275 1.463 0.416 0 255 123 61 
3.275 1.458 0.421 0 255 110 64 
3.276 1.455 0.427 0 255 110 64 
3.278 1.452 0.432 0 255 123 61 
3.285 1.451 0.438 0 255 136 58 
3.283 1.446 0.443 0 255 127 60 
3.282 1.442 0.448 0 255 123 61 
3.28 1.438 0.452 0 255 123 61 
3.283 1.434 0.458 0 255 136 58 
3.286 1.433 0.463 0 255 144 56 
3.284 1.428 0.468 0 255 136 58 
3.282 1.424 0.472 0 255 144 56 
3.286 1.422 0.478 0 255 131 59 
3.295 1.422 0.484 0 255 97 67 
3.292 1.417 0.489 0 255 59 76 
3.296 1.415 0.494 0 255 51 78 
3.298 1.412 0.5 0 255 38 81 
3.293 1.407 0.504 0 255 85 70 
3.294 1.404 0.509 0 255 136 58 
3.302 1.363 0.578 0 255 204 42 
3.302 1.361 0.583 0 255 204 42 
3.312 1.356 0.599 0 255 182 47 
3.307 1.352 0.603 0 255 110 64 
3.312 1.351 0.608 0 255 46 79 
3.311 1.348 0.613 0 255 12 87 
3.316 1.347 0.618 12 255 0 93 
3.315 1.345 0.623 12 255 0 93 
3.32 1.342 0.633 8 255 0 92 
3.319 1.339 0.637 0 255 0 90 
3.316 1.335 0.641 12 255 0 93 
3.319 1.335 0.646 0 255 0 90 
3.319 1.332 0.651 0 255 0 90 
3.319 1.33 0.655 0 255 0 90 
3.32 1.318 0.682 0 255 157 53 
3.317 1.315 0.686 0 255 195 44 
3.318 1.313 0.69 0 255 225 37 
3.315 1.31 0.694 0 255 238 34 
3.319 1.31 0.699 0 255 212 40 
3.321 1.308 0.704 0 255 161 52 
3.322 1.301 0.725 4 255 0 91 
3.327 1.3 0.734 0 255 8 88 
3.324 1.296 0.742 0 255 8 88 
3.325 1.292 0.754 0 255 8 88 
3.322 1.29 0.758 0 255 8 88 
3.321 1.288 0.761 0 255 8 88 
3.319 1.286 0.766 0 255 17 86 
3.321 1.286 0.769 0 255 17 86 
3.321 1.285 0.774 0 255 17 86 
3.321 1.284 0.778 0 255 17 86 
3.322 1.283 0.782 0 255 8 88 
3.322 1.282 0.786 0 255 8 88 
3.329 1.284 0.791 0 255 8 88 
3.321 1.279 0.793 0 255 21 85 
3.322 1.279 0.797 0 255 42 80 
3.166 1.586 0.772 0 255 25 84 
3.17 1.59 0.768 0 255 42 80 
3.168 1.593 0.764 0 255 51 78 
3.167 1.596 0.759 0 255 34 82 
3.169 1.6 0.754 0 255 42 80 
3.167 1.605 0.745 0 255 51 78 
3.163 1.606 0.74 0 255 21 85 
3.16 1.608 0.735 0 255 51 78 
3.161 1.612 0.73 0 255 21 85 
3.165 1.616 0.726 0 255 42 80 
3.162 1.618 0.722 0 255 34 82 
3.162 1.621 0.717 0 255 34 82 
3.158 1.622 0.711 0 255 51 78 
3.154 1.623 0.706 0 255 38 81 
3.157 1.627 0.701 0 255 51 78 
3.154 1.629 0.696 0 255 63 75 
3.138 1.654 0.638 0 255 72 73 
3.137 1.657 0.632 0 255 63 75 
3.142 1.662 0.628 0 255 51 78 
3.14 1.673 0.606 0 255 51 78 
3.138 1.689 0.573 0 255 51 78 
3.134 1.69 0.566 0 255 72 73 
3.134 1.692 0.561 0 255 72 73 
3.133 1.695 0.555 0 255 72 73 
3.136 1.699 0.549 0 255 80 71 
3.136 1.701 0.543 0 255 80 71 
3.133 1.703 0.536 0 255 72 73 
3.136 1.707 0.531 0 255 46 79 
3.132 1.708 0.525 0 255 72 73 
3.132 1.711 0.519 0 255 38 81 
3.132 1.714 0.513 0 255 38 81 
3.132 1.716 0.507 0 255 55 77 
3.094 1.71 0.47 255 247 0 152 
3.109 1.723 0.46 255 247 0 152 
3.121 1.735 0.45 255 252 0 150 
3.125 1.739 0.444 255 252 0 150 
3.128 1.743 0.438 131 255 0 121 
3.131 1.747 0.432 255 252 0 150 
3.131 1.751 0.426 72 255 0 107 
3.13 1.752 0.419 29 255 0 97 
3.131 1.755 0.413 38 255 0 99 
3.135 1.76 0.407 46 255 0 101 
3.131 1.761 0.4 21 255 0 95 
3.128 1.761 0.393 0 255 51 78 
3.128 1.764 0.387 0 255 85 70 
3.131 1.77 0.374 0 255 68 74 
3.126 1.773 0.36 0 255 153 54 
3.126 1.775 0.353 0 255 204 42 
3.173 1.749 0.202 0 255 25 84 
3.171 1.745 0.208 110 255 0 116 
3.17 1.741 0.215 140 255 0 123 
3.173 1.739 0.222 123 255 0 119 
3.17 1.733 0.228 63 255 0 105 
3.175 1.733 0.235 110 255 0 116 
3.171 1.727 0.241 63 255 0 105 
3.174 1.725 0.248 55 255 0 103 
3.173 1.721 0.254 63 255 0 105 
3.178 1.721 0.262 38 255 0 99 
3.175 1.716 0.268 63 255 0 105 
3.175 1.712 0.274 55 255 0 103 
3.176 1.709 0.281 55 255 0 103 
3.177 1.708 0.288 4 255 0 91 
3.176 1.704 0.294 0 255 29 83 
3.175 1.7 0.3 0 255 34 82 
3.178 1.698 0.307 0 255 17 86 
3.176 1.694 0.314 17 255 0 94 
3.18 1.693 0.32 46 255 0 101 
3.179 1.689 0.327 55 255 0 103 
3.179 1.686 0.333 55 255 0 103 
3.18 1.683 0.34 55 255 0 103 
3.179 1.681 0.347 29 255 0 97 
3.182 1.676 0.36 55 255 0 103 
3.185 1.671 0.373 46 255 0 101 
3.184 1.663 0.393 0 255 12 87 
3.177 1.655 0.405 0 255 55 77 
3.178 1.652 0.411 0 255 55 77 
3.179 1.65 0.418 0 255 46 79 
3.175 1.642 0.43 0 255 34 82 
3.182 1.641 0.443 0 255 38 81 
3.18 1.635 0.455 0 255 55 77 
3.184 1.623 0.493 0 255 38 81 
3.19 1.615 0.525 46 255 0 101 
3.186 1.61 0.53 38 255 0 99 
3.19 1.61 0.537 46 255 0 101 
3.192 1.609 0.543 8 255 0 92 
3.188 1.605 0.548 29 255 0 97 
3.188 1.603 0.554 29 255 0 97 
3.191 1.603 0.561 4 255 0 91 
3.188 1.6 0.566 0 255 12 87 
3.19 1.599 0.573 0 255 17 86 
3.186 1.59 0.596 0 255 42 80 
3.189 1.587 0.609 0 255 17 86 
3.192 1.588 0.615 4 255 0 91 
3.19 1.584 0.62 8 255 0 92 
3.192 1.585 0.627 25 255 0 96 
3.194 1.571 0.684 0 255 0 90 
3.193 1.569 0.689 4 255 0 91 
3.19 1.566 0.699 0 255 21 85 
3.186 1.562 0.704 0 255 72 73 
3.181 1.559 0.708 0 255 110 64 
3.178 1.556 0.713 0 255 119 62 
3.178 1.555 0.718 0 255 119 62 
3.182 1.556 0.724 0 255 127 60 
3.182 1.555 0.73 0 255 127 60 
3.176 1.552 0.734 0 255 140 57 
3.177 1.551 0.739 0 255 144 56 
3.171 1.546 0.753 0 255 157 53 
3.174 1.543 0.785 0 255 182 47 
3.179 1.545 0.791 0 255 204 42 
3.181 1.545 0.796 0 255 255 30 
3.506 1.06 0.38 0 85 255 10 
3.5 1.064 0.379 0 255 199 43 
3.499 1.068 0.378 0 255 55 77 
3.496 1.072 0.377 0 255 21 85 
3.497 1.077 0.377 0 255 8 88 
3.497 1.081 0.376 0 255 8 88 
3.493 1.085 0.376 0 255 21 85 
3.474 1.1 0.371 0 255 4 89 
3.474 1.105 0.37 0 255 4 89 
3.46 1.158 0.358 0 255 246 32 
3.448 1.159 0.357 0 161 255 19 
3.447 1.164 0.355 0 161 255 19 
3.443 1.169 0.353 0 170 255 20 
3.437 1.172 0.351 0 170 255 20 
3.437 1.183 0.349 0 178 255 21 
3.436 1.188 0.348 0 170 255 20 
3.43 1.192 0.346 0 178 255 21 
3.432 1.198 0.345 0 178 255 21 
3.429 1.203 0.343 0 187 255 22 
3.425 1.207 0.341 0 195 255 23 
3.422 1.212 0.34 0 195 255 23 
3.417 1.222 0.336 0 195 255 23 
3.414 1.226 0.334 0 195 255 23 
3.413 1.231 0.333 0 204 255 24 
3.416 1.244 0.33 0 255 161 52 
3.411 1.248 0.328 0 255 21 85 
3.408 1.254 0.326 0 255 17 86 
3.392 1.284 0.313 0 255 17 86 
3.393 1.29 0.311 0 255 21 85 
3.393 1.295 0.309 0 255 29 83 
3.39 1.301 0.307 0 255 29 83 
3.384 1.305 0.304 0 255 46 79 
3.382 1.31 0.302 0 255 80 71 
3.377 1.321 0.298 0 255 153 54 
3.373 1.325 0.295 0 255 174 49 
3.377 1.334 0.293 0 255 174 49 
3.37 1.336 0.291 0 255 97 67 
3.368 1.342 0.288 0 255 21 85 
3.367 1.349 0.286 0 255 8 88 
3.364 1.359 0.281 0 255 8 88 
3.362 1.365 0.278 0 255 4 89 
3.358 1.37 0.275 0 255 4 89 
3.356 1.376 0.273 0 255 4 89 
3.345 1.384 0.267 0 255 25 84 
3.343 1.39 0.264 0 255 25 84 
3.341 1.396 0.262 0 255 25 84 
3.341 1.402 0.259 0 255 34 82 
3.338 1.407 0.256 0 255 25 84 
3.333 1.412 0.253 0 255 12 87 
3.331 1.417 0.25 0 255 12 87 
3.333 1.425 0.248 0 255 46 79 
3.333 1.431 0.245 0 255 165 51 
3.322 1.433 0.242 0 255 242 33 
3.316 1.437 0.238 0 255 242 33 
3.312 1.442 0.235 0 255 242 33 
3.311 1.449 0.233 0 255 238 34 
3.308 1.454 0.229 0 255 229 36 
3.306 1.46 0.227 0 255 229 36 
3.304 1.465 0.223 0 255 229 36 
3.299 1.47 0.219 0 255 229 36 
3.299 1.497 0.207 0 195 255 23 
3.294 1.501 0.204 0 136 255 16 
3.403 1.291 0.208 0 110 255 13 
3.405 1.287 0.211 0 153 255 18 
3.41 1.283 0.214 0 178 255 21 
3.41 1.277 0.218 0 178 255 21 
3.408 1.271 0.221 0 204 255 24 
3.413 1.267 0.224 0 195 255 23 
3.416 1.262 0.227 0 195 255 23 
3.414 1.256 0.231 0 187 255 22 
3.424 1.255 0.235 0 255 242 33 
3.427 1.25 0.239 0 255 102 66 
3.426 1.239 0.245 12 255 0 93 
3.43 1.236 0.248 0 255 0 90 
3.433 1.231 0.251 12 255 0 93 
3.434 1.227 0.255 12 255 0 93 
3.434 1.221 0.258 0 255 0 90 
3.438 1.217 0.261 12 255 0 93 
3.438 1.213 0.265 12 255 0 93 
3.44 1.208 0.268 12 255 0 93 
3.441 1.203 0.271 12 255 0 93 
3.442 1.199 0.274 12 255 0 93 
3.447 1.19 0.281 8 255 0 92 
3.448 1.186 0.284 8 255 0 92 
3.446 1.181 0.287 12 255 0 93 
3.45 1.177 0.291 8 255 0 92 
3.451 1.173 0.294 8 255 0 92 
3.455 1.17 0.298 0 255 4 89 
3.459 1.166 0.301 0 255 59 76 
3.463 1.158 0.308 0 255 178 48 
3.469 1.156 0.312 0 255 114 63 
3.463 1.146 0.319 0 255 4 89 
3.464 1.141 0.322 0 255 0 90 
3.466 1.137 0.325 4 255 0 91 
3.467 1.133 0.328 4 255 0 91 
3.47 1.13 0.332 0 255 4 89 
3.468 1.126 0.335 0 255 4 89 
3.472 1.119 0.342 0 255 4 89 
3.471 1.115 0.345 4 255 0 91 
3.474 1.107 0.351 0 255 4 89 
3.489 1.108 0.356 0 255 21 85 
3.48 1.102 0.358 17 255 0 94 
3.492 1.101 0.363 0 255 8 88 
3.494 1.09 0.373 0 255 8 88 
3.492 1.087 0.376 0 255 21 85 
3.495 1.084 0.379 0 255 8 88 
3.494 1.08 0.382 0 255 21 85 
3.495 1.077 0.385 0 255 21 85 
3.497 1.073 0.389 0 255 8 88 
3.502 1.068 0.396 0 255 72 73 
3.503 1.066 0.399 0 255 199 43 
3.504 1.063 0.402 0 136 255 16 
3.46 1.049 0.681 0 51 255 6 
3.462 1.052 0.682 0 76 255 9 
3.457 1.053 0.681 0 102 255 12 
3.457 1.057 0.681 0 110 255 13 
3.455 1.059 0.681 0 110 255 13 
3.455 1.062 0.681 0 102 255 12 
