3.45600009 1.10100007 0.80300003 0 255 38 81.000000
3.34200025 1.31500006 0.78800005 0 255 21 85.000000
3.34100008 1.31900001 0.78600001 0 255 21 85.000000
3.33500028 1.32100010 0.78300005 0 255 93 68.000000
3.33500028 1.32400012 0.78100002 0 255 182 47.000000
3.32300019 1.33500004 0.77000004 0 153 255 18.000000
3.32000017 1.33700001 0.76700002 0 161 255 19.000000
3.31800008 1.34100008 0.76400006 0 178 255 21.000000
3.32000017 1.34900010 0.76000005 0 195 255 23.000000
3.31800008 1.35200012 0.75700003 0 187 255 22.000000
3.31600022 1.37200010 0.74400002 0 212 255 25.000000
3.31400013 1.37400007 0.74100006 0 221 255 26.000000
3.30600023 1.37600005 0.73700005 0 238 255 28.000000
3.30300021 1.38600004 0.72700006 0 255 250 31.000000
3.30100012 1.39000010 0.72300005 0 255 246 32.000000
3.30000019 1.40200007 0.71400005 0 255 246 32.000000
3.30000019 1.40500009 0.71100003 0 255 221 38.000000
3.29800010 1.40800011 0.70800000 0 255 195 44.000000
3.29600024 1.41200006 0.70400006 0 255 157 53.000000
3.29600024 1.41700006 0.70100003 0 255 153 54.000000
3.29100013 1.41800010 0.69700003 0 255 170 50.000000
3.29200006 1.42200005 0.69400001 0 255 208 41.000000
3.29000020 1.42600012 0.69000006 0 255 225 37.000000
3.28500009 1.42800009 0.68600005 0 255 216 39.000000
3.27000022 1.46300006 0.64700001 0 255 195 44.000000
3.26700020 1.47100008 0.63900006 0 255 195 44.000000
3.25700021 1.50800002 0.59600002 0 255 85 70.000000
3.25300026 1.51100004 0.59100002 0 255 127 60.000000
3.25100017 1.51400006 0.58700001 0 255 131 59.000000
3.24700022 1.51700008 0.58200002 0 255 123 61.000000
3.24800014 1.52200007 0.57800001 0 255 127 60.000000
3.24600005 1.52500010 0.57300001 0 255 123 61.000000
3.24500012 1.52900004 0.56900001 0 255 123 61.000000
3.24100018 1.53100002 0.56400001 0 255 114 63.000000
3.24000025 1.53500009 0.55900002 0 255 114 63.000000
3.24200010 1.54000008 0.55500001 0 255 123 61.000000
3.23900008 1.54300010 0.55000001 0 255 114 63.000000
3.23700023 1.55100012 0.54000002 0 255 114 63.000000
3.23100019 1.56100011 0.52500004 0 255 102 66.000000
3.23100019 1.56600010 0.52000004 0 255 97 67.000000
3.23100019 1.56900012 0.51600003 0 255 97 67.000000
3.22600007 1.57500005 0.50500000 0 255 97 67.000000
3.22900009 1.58100009 0.50000000 0 255 59 76.000000
3.23100019 1.59100008 0.49000001 0 255 46 79.000000
3.23100019 1.59500003 0.48500001 0 255 25 84.000000
3.23200011 1.59900010 0.48000002 0 255 17 86.000000
3.22600007 1.60200012 0.47400004 0 255 25 84.000000
3.22300005 1.60500002 0.46900001 0 255 46 79.000000
3.21700025 1.60500002 0.46300003 0 255 72 73.000000
3.21400023 1.60800004 0.45700002 0 255 68 74.000000
3.21600008 1.61300004 0.45200002 0 255 42 80.000000
3.20800018 1.62600005 0.43000001 0 255 59 76.000000
3.20600009 1.63800013 0.41300002 0 255 34 82.000000
3.20300007 1.64600003 0.40200001 0 255 34 82.000000
3.20800018 1.65200007 0.39700001 0 255 42 80.000000
3.20800018 1.65600014 0.39200002 0 255 8 88.000000
3.21200013 1.66600013 0.38100001 34 255 0 98.000000
3.20700026 1.66800010 0.37500003 0 255 8 88.000000
3.20400023 1.67900014 0.35700002 51 255 0 102.000000
3.20300007 1.68300009 0.35000002 51 255 0 102.000000
3.20200014 1.68700004 0.34500003 51 255 0 102.000000
3.19400024 1.69500005 0.32600001 12 255 0 93.000000
3.19400024 1.69900012 0.32000002 0 255 42 80.000000
3.19100022 1.70200002 0.31400001 0 255 38 81.000000
3.19000006 1.70500004 0.30800003 0 255 38 81.000000
3.18900013 1.70900011 0.30200002 0 255 51 78.000000
3.18900013 1.71300006 0.29600000 0 255 42 80.000000
3.18700004 1.71600008 0.29000002 68 255 0 106.000000
3.18700004 1.72000003 0.28400001 114 255 0 117.000000
3.19000006 1.72500002 0.27800003 174 255 0 131.000000
3.18900013 1.73000014 0.27100003 144 255 0 124.000000
3.18700004 1.73300004 0.26500002 59 255 0 104.000000
3.18800020 1.73700011 0.25900000 34 255 0 98.000000
3.18900013 1.74200010 0.25300002 42 255 0 100.000000
3.18700004 1.74400008 0.24600001 72 255 0 107.000000
3.18500018 1.74800003 0.24000001 114 255 0 117.000000
3.18300009 1.75100005 0.23400001 72 255 0 107.000000
3.18200016 1.75400007 0.22700001 72 255 0 107.000000
3.17900014 1.75700009 0.22100002 144 255 0 124.000000
3.17600012 1.76000011 0.21400002 157 255 0 127.000000
3.17600012 1.76300013 0.20800000 80 255 0 109.000000
3.17800021 1.76900005 0.20100001 0 255 17 86.000000
3.22100019 1.67100012 0.19900002 0 204 255 24.000000
3.22500014 1.66900003 0.20600002 0 255 178 48.000000
3.22400022 1.66300011 0.21100001 0 255 106 65.000000
3.22400022 1.65800011 0.21700001 0 255 93 68.000000
3.22400022 1.65300012 0.22300000 0 255 85 70.000000
3.22200012 1.64800012 0.22800002 0 255 89 69.000000
3.22900009 1.63600004 0.24500000 0 255 80 71.000000
3.22700024 1.62600005 0.25700000 0 255 76 72.000000
3.23500013 1.62500012 0.26300001 0 255 55 77.000000
3.23200011 1.61900008 0.26800001 0 255 72 73.000000
3.23900008 1.61800003 0.27400002 0 255 46 79.000000
3.24000025 1.61400008 0.28000000 0 255 25 84.000000
3.24200010 1.60900009 0.28600001 0 255 0 90.000000
3.24800014 1.60800004 0.29200003 29 255 0 97.000000
3.24400020 1.60100007 0.29700002 0 255 25 84.000000
3.24500012 1.59700012 0.30300000 0 255 25 84.000000
3.24600005 1.59300005 0.30800003 0 255 42 80.000000
3.24600005 1.58900011 0.31400001 0 255 38 81.000000
3.25000024 1.57700002 0.33100003 0 255 51 78.000000
3.25100017 1.57000005 0.34400001 0 255 80 71.000000
3.25700021 1.56400013 0.35500002 0 255 63 75.000000
3.25800014 1.56000006 0.36100003 0 255 55 77.000000
3.25600004 1.55600011 0.36600003 0 255 55 77.000000
3.25700021 1.55200005 0.37200001 0 255 85 70.000000
3.25600004 1.54600012 0.37700000 0 255 89 69.000000
3.25800014 1.54400003 0.38300002 0 255 80 71.000000
3.26000023 1.54100013 0.38900003 0 255 55 77.000000
3.26300025 1.53800011 0.39400002 0 255 46 79.000000
3.26800013 1.53600001 0.40000001 0 255 29 83.000000
3.26800013 1.53300011 0.40600002 0 255 12 87.000000
3.27100015 1.51900005 0.42800003 0 255 29 83.000000
3.27000022 1.50300002 0.44900003 0 255 93 68.000000
3.27100015 1.50000012 0.45500001 0 255 93 68.000000
3.27100015 1.49700010 0.46000001 0 255 93 68.000000
3.27400017 1.49400008 0.46600002 0 255 102 66.000000
3.27500010 1.49100006 0.47200003 0 255 102 66.000000
3.27500010 1.48800004 0.47700003 0 255 106 65.000000
3.27600026 1.48500001 0.48200002 0 255 102 66.000000
3.27700019 1.48200011 0.48800004 0 255 102 66.000000
3.27800012 1.47900009 0.49300003 0 255 102 66.000000
3.28300023 1.47800004 0.49900001 0 255 80 71.000000
3.28900027 1.47600007 0.50600004 0 255 29 83.000000
3.29200006 1.47500002 0.51100004 0 255 4 89.000000
3.29500008 1.44800007 0.56000000 8 255 0 92.000000
3.29800010 1.44700003 0.56500000 8 255 0 92.000000
3.30200005 1.44600010 0.57100004 25 255 0 96.000000
3.29700017 1.44100010 0.57500005 4 255 0 91.000000
3.30500007 1.44100010 0.58200002 17 255 0 94.000000
3.30400014 1.43900001 0.58700001 12 255 0 93.000000
3.29900026 1.43400002 0.59100002 8 255 0 92.000000
3.30100012 1.43100011 0.59600002 0 255 8 88.000000
3.31000018 1.40400004 0.66200006 12 255 0 93.000000
3.31000018 1.40200007 0.66700006 12 255 0 93.000000
3.30800009 1.37700009 0.72900003 0 255 246 32.000000
3.31000018 1.37700009 0.73400003 0 255 250 31.000000
3.30600023 1.37300003 0.73700005 0 246 255 29.000000
3.30800009 1.37300003 0.74200004 0 238 255 28.000000
3.31600022 1.37400007 0.74900001 0 221 255 26.000000
3.30800009 1.36500001 0.76400006 0 204 255 24.000000
3.15000010 1.68700004 0.73000002 0 255 157 53.000000
3.14600015 1.71400011 0.67100000 0 255 46 79.000000
3.14500022 1.71600008 0.66600001 0 255 38 81.000000
3.15000010 1.72100008 0.66100001 0 255 8 88.000000
3.14900017 1.72300005 0.65600002 0 255 8 88.000000
3.14700007 1.72900009 0.63900006 0 255 4 89.000000
3.12700009 1.75400007 0.54700005 0 255 76 72.000000
3.12900019 1.76000011 0.53500003 0 255 97 67.000000
3.12800026 1.76200008 0.52900004 0 255 110 64.000000
3.12800026 1.76600003 0.51600003 0 255 110 64.000000
3.13000011 1.77000010 0.51000005 0 255 102 66.000000
3.17500019 1.77900004 0.20000000 0 255 85 70.000000
3.17100024 1.77400005 0.20600002 80 255 0 109.000000
3.16800022 1.76900005 0.21400002 255 252 0 150.000000
3.16800022 1.76600003 0.22100002 229 255 0 144.000000
3.17400026 1.76300013 0.23500001 144 255 0 124.000000
3.17400026 1.76000011 0.24200001 157 255 0 127.000000
3.17800021 1.76000011 0.24900001 114 255 0 117.000000
3.17300010 1.75400007 0.25500003 89 255 0 111.000000
3.17300010 1.75200009 0.26200002 114 255 0 117.000000
3.17500019 1.74900007 0.26900002 102 255 0 114.000000
3.17500019 1.74700010 0.27600002 102 255 0 114.000000
3.17500019 1.74400008 0.28300002 114 255 0 117.000000
3.17600012 1.74200010 0.29000002 114 255 0 117.000000
3.17100024 1.73100007 0.31000000 0 255 34 82.000000
3.17200017 1.72900009 0.31600001 0 255 21 85.000000
3.17100024 1.72500002 0.32300001 0 255 51 78.000000
3.17200017 1.72100008 0.33700001 0 255 51 78.000000
3.17300010 1.71700013 0.35000002 0 255 17 86.000000
3.17300010 1.71400011 0.35700002 0 255 21 85.000000
3.17000008 1.70100009 0.38900003 63 255 0 105.000000
3.17100024 1.70000005 0.39600003 255 252 0 150.000000
3.16900015 1.69600010 0.40200001 255 252 0 150.000000
3.16900015 1.69400012 0.40900001 255 250 0 151.000000
3.16800022 1.69100010 0.41600001 255 252 0 150.000000
3.16900015 1.68900013 0.42200002 76 255 0 108.000000
3.17100024 1.68800008 0.42900002 8 255 0 92.000000
3.17500019 1.68600011 0.44200003 0 255 17 86.000000
3.17900014 1.68600011 0.45000002 0 255 0 90.000000
3.17600012 1.68200004 0.45700002 0 255 21 85.000000
3.17900014 1.68100011 0.46400002 0 255 34 82.000000
3.17900014 1.67900014 0.47000003 0 255 34 82.000000
3.17600012 1.67700005 0.47600001 0 255 51 78.000000
3.19100022 1.65400004 0.59200001 21 255 0 95.000000
3.18900013 1.65200007 0.59700000 0 255 38 81.000000
3.18300009 1.64700007 0.60200006 0 255 38 81.000000
3.17800021 1.64300013 0.60700005 0 255 80 71.000000
3.17800021 1.64200008 0.61300004 0 255 85 70.000000
3.17600012 1.63000011 0.67200005 0 255 106 65.000000
3.17600012 1.62900007 0.67800003 0 255 102 66.000000
3.17600012 1.62800002 0.68400002 0 255 110 64.000000
3.17600012 1.62600005 0.68900001 0 255 110 64.000000
3.18000007 1.62800002 0.69600004 0 255 80 71.000000
3.18600011 1.63000011 0.70300001 0 255 51 78.000000
3.18800020 1.63100004 0.71000004 0 255 17 86.000000
3.18400025 1.62000012 0.77500004 0 255 8 88.000000
3.18400025 1.62100005 0.78000003 17 255 0 94.000000
3.18000007 1.61800003 0.78500003 0 255 4 89.000000
3.49300027 1.05700004 0.45000002 0 8 255 1.000000
3.49800014 1.08000004 0.44700003 0 110 255 13.000000
3.49400020 1.08400011 0.44600001 0 102 255 12.000000
3.49400020 1.08900011 0.44500002 0 110 255 13.000000
3.49300027 1.09300005 0.44500002 0 110 255 13.000000
3.48700023 1.10100007 0.44200003 0 119 255 14.000000
3.48600006 1.10500002 0.44200003 0 119 255 14.000000
3.48700023 1.11000001 0.44100001 0 127 255 15.000000
3.48700023 1.11500001 0.44000003 0 136 255 16.000000
3.46300006 1.16200006 0.42500001 0 255 21 85.000000
3.46300006 1.16800010 0.42400002 0 255 21 85.000000
3.46200013 1.17200005 0.42300001 0 255 21 85.000000
3.45600009 1.17500007 0.42100003 0 255 8 88.000000
3.45500016 1.18000007 0.41900003 0 255 8 88.000000
3.42400026 1.24100006 0.39600003 0 255 233 35.000000
3.42200017 1.24500000 0.39400002 0 255 187 46.000000
3.42000008 1.25000000 0.39200002 0 255 68 74.000000
3.41800022 1.25400007 0.38900003 0 255 4 89.000000
3.41600013 1.26000011 0.38600001 0 255 4 89.000000
3.41200018 1.26300001 0.38400000 8 255 0 92.000000
3.39400005 1.31000006 0.36300001 0 255 0 90.000000
3.39300013 1.31400001 0.36100003 0 255 0 90.000000
3.39100027 1.32100010 0.35900003 0 255 4 89.000000
3.38800025 1.32400012 0.35600001 0 255 8 88.000000
3.38600016 1.33000004 0.35300002 0 255 8 88.000000
3.37900019 1.33300006 0.35000002 0 255 12 87.000000
3.37900019 1.33900011 0.34800002 0 255 131 59.000000
3.37100005 1.34200001 0.34500003 0 255 216 39.000000
3.36800027 1.34700012 0.34200001 0 255 229 36.000000
3.36400008 1.35800004 0.33600003 0 255 212 40.000000
3.34900022 1.38800001 0.31800002 0 255 204 42.000000
3.34500027 1.40000010 0.31200001 0 255 204 42.000000
3.34600019 1.40600002 0.31000000 0 255 187 46.000000
3.34000015 1.41600001 0.30300000 0 255 153 54.000000
3.33800006 1.42100012 0.30000001 0 255 106 65.000000
3.33900023 1.42800009 0.29700002 0 255 93 68.000000
3.33300018 1.43200004 0.29400000 0 255 110 64.000000
3.32800007 1.44300008 0.28700000 0 255 174 49.000000
3.31000018 1.48500001 0.25900000 0 255 165 51.000000
3.30800009 1.49100006 0.25600001 0 255 165 51.000000
3.29800010 1.50600004 0.24500000 0 255 131 59.000000
3.29100013 1.51700008 0.23800001 0 255 123 61.000000
3.28500009 1.55900002 0.21200001 8 255 0 92.000000
3.28400016 1.56500006 0.20800000 0 255 8 88.000000
3.28000021 1.57000005 0.20400001 0 255 38 81.000000
3.38700008 1.37000012 0.21100001 0 246 255 29.000000
3.38700008 1.36400008 0.21500000 0 255 161 52.000000
3.39300013 1.34200001 0.23000000 0 255 170 50.000000
3.39400005 1.33700001 0.23300001 0 255 242 33.000000
3.40200019 1.31800008 0.24800001 0 255 246 32.000000
3.40300012 1.31300008 0.25100002 0 255 246 32.000000
3.40500021 1.30800009 0.25500003 0 255 246 32.000000
3.40600014 1.30300009 0.25900000 0 255 246 32.000000
3.40700006 1.29800010 0.26200002 0 255 242 33.000000
3.40900016 1.29300010 0.26600000 0 255 246 32.000000
3.41200018 1.28300011 0.27300000 0 255 246 32.000000
3.41500020 1.27900004 0.27700001 0 255 250 31.000000
3.41500020 1.27300000 0.28000000 0 255 246 32.000000
3.42300010 1.26100004 0.29100001 0 255 255 30.000000
3.43300009 1.25500011 0.29900002 0 255 157 53.000000
3.43600011 1.25100005 0.30400002 0 255 106 65.000000
3.43600011 1.24500000 0.30700001 0 255 136 58.000000
3.43500018 1.24000001 0.31000000 0 255 225 37.000000
3.44000006 1.23300004 0.31800002 0 229 255 27.000000
3.44300008 1.22000003 0.32800001 0 229 255 27.000000
3.44600010 1.21600008 0.33200002 0 212 255 25.000000
3.44900012 1.21300006 0.33600003 0 204 255 24.000000
3.44900012 1.20800006 0.33900002 0 212 255 25.000000
3.45300007 1.20500004 0.34300002 0 204 255 24.000000
3.45400023 1.20100009 0.34700000 0 212 255 25.000000
3.45300007 1.19600010 0.35000002 0 204 255 24.000000
3.46000028 1.19400001 0.35400000 0 204 255 24.000000
3.45900011 1.18900001 0.35800001 0 195 255 23.000000
3.46100020 1.18500006 0.36100003 0 195 255 23.000000
3.46600008 1.17400002 0.37200001 0 195 255 23.000000
3.46500015 1.16900003 0.37600002 0 195 255 23.000000
3.46900010 1.16700006 0.38000003 0 187 255 22.000000
3.46900010 1.15500009 0.39000002 0 255 68 74.000000
3.47500014 1.13100004 0.41500002 0 170 255 20.000000
3.47900009 1.12800002 0.41900003 0 144 255 17.000000
3.47400022 1.12300003 0.42200002 0 153 255 18.000000
3.47900009 1.12200010 0.42600003 0 144 255 17.000000
3.48200011 1.11900008 0.43000001 0 144 255 17.000000
3.48400021 1.11600006 0.43400002 0 136 255 16.000000
3.48900008 1.11500001 0.43800002 0 144 255 17.000000
3.48700023 1.11000001 0.44100001 0 136 255 16.000000
3.48400021 1.10200000 0.44700003 0 119 255 14.000000
3.48900008 1.10100007 0.45100003 0 119 255 14.000000
3.48900008 1.09900010 0.45400003 0 119 255 14.000000
3.48600006 1.09400010 0.45700002 0 110 255 13.000000
3.49100018 1.08900011 0.46500003 0 119 255 14.000000
3.49200010 1.08600008 0.46800002 0 110 255 13.000000
3.49100018 1.08400011 0.47100002 0 102 255 12.000000
3.49700022 1.08200002 0.47500002 0 102 255 12.000000
3.49700022 1.08000004 0.47900003 0 102 255 12.000000
3.49500012 1.07700002 0.48200002 0 102 255 12.000000
3.49700022 1.07400000 0.48500001 0 102 255 12.000000
3.50200009 1.07200003 0.48900002 0 93 255 11.000000
3.50700021 1.07200003 0.49300003 0 85 255 10.000000
3.50700021 1.07000005 0.49600002 0 68 255 8.000000
3.50300026 1.06300008 0.50200003 0 51 255 6.000000
3.49600005 1.05700004 0.50900000 0 8 255 1.000000
3.48400021 1.05200005 0.73600006 0 119 255 14.000000
3.48700023 1.05500007 0.73800004 0 229 255 27.000000
3.48200011 1.05800009 0.73900002 0 255 106 65.000000
3.48100019 1.06000006 0.73900002 0 255 46 79.000000
3.47700024 1.06100011 0.73900002 0 255 0 90.000000
3.47500014 1.06300008 0.73900002 0 255 29 83.000000
3.47600007 1.06600010 0.73900002 0 255 25 84.000000
3.47400022 1.06700003 0.73900002 0 255 29 83.000000
3.47300005 1.07000005 0.74000001 0 255 29 83.000000
3.47500014 1.07200003 0.74100006 0 255 25 84.000000
3.47300005 1.07400000 0.74100006 0 255 0 90.000000
3.47000027 1.07600009 0.74100006 0 255 21 85.000000
3.46500015 1.07700002 0.74000001 0 255 8 88.000000
3.46800017 1.08100009 0.74100006 0 255 21 85.000000
3.46700025 1.08300006 0.74200004 0 255 21 85.000000
3.46600008 1.08600008 0.74200004 0 255 21 85.000000
3.46700025 1.08800006 0.74300003 0 255 29 83.000000
3.46100020 1.09000003 0.74200004 0 255 8 88.000000
3.46100020 1.09200001 0.74200004 0 255 8 88.000000
3.46000028 1.09500003 0.74200004 0 255 8 88.000000
3.45900011 1.09800005 0.74200004 0 255 8 88.000000
3.45900011 1.10000002 0.74200004 0 255 8 88.000000
3.45800018 1.10300004 0.74200004 0 255 8 88.000000
3.45700026 1.10600007 0.74200004 0 255 8 88.000000
3.45700026 1.10800004 0.74200004 0 255 8 88.000000
3.45600009 1.11100006 0.74200004 0 255 8 88.000000
3.45200014 1.11300004 0.74000001 0 255 17 86.000000
3.45300007 1.11600006 0.74100006 0 255 17 86.000000
3.44900012 1.11900008 0.74000001 0 255 17 86.000000
3.44700027 1.12100005 0.73900002 4 255 0 91.000000
3.44600010 1.12300003 0.73900002 0 255 4 89.000000
3.44400024 1.12600005 0.73800004 0 255 4 89.000000
3.44300008 1.12900007 0.73800004 0 255 4 89.000000
3.44300008 1.13200009 0.73800004 0 255 4 89.000000
3.44400024 1.13600004 0.73700005 0 255 25 84.000000
3.44100022 1.13800001 0.73600006 0 255 17 86.000000
3.43500018 1.14000010 0.73500001 0 255 80 71.000000
3.43600011 1.14300001 0.73500001 0 255 165 51.000000
3.43300009 1.14900005 0.73300004 0 153 255 18.000000
3.42600012 1.15000010 0.73100001 0 127 255 15.000000
3.42100024 1.15300000 0.72900003 0 136 255 16.000000
3.42400026 1.15700006 0.72900003 0 136 255 16.000000
3.42000008 1.15900004 0.72800004 0 136 255 16.000000
3.42000008 1.16300011 0.72700006 0 136 255 16.000000
3.42000008 1.16600001 0.72600001 0 136 255 16.000000
3.41900015 1.16900003 0.72500002 0 136 255 16.000000
3.41200018 1.18600011 0.71800005 0 161 255 19.000000
3.40900016 1.18800008 0.71600002 0 170 255 20.000000
3.40700006 1.19200003 0.71500003 0 170 255 20.000000
3.40700006 1.19500005 0.71400005 0 187 255 22.000000
3.41000009 1.20100009 0.71300006 0 221 255 26.000000
3.41100025 1.20400012 0.71300006 0 255 246 32.000000
3.40500021 1.20600009 0.71000004 0 255 212 40.000000
3.40300012 1.21000004 0.70800000 0 255 195 44.000000
3.40400004 1.21300006 0.70700002 0 255 148 55.000000
3.40200019 1.21700001 0.70500004 0 255 127 60.000000
3.39800024 1.21900010 0.70300001 0 255 102 66.000000
3.39300013 1.22500002 0.69900006 0 255 42 80.000000
3.38600016 1.23500001 0.69300002 0 255 238 34.000000
3.38700008 1.24000001 0.69200003 0 187 255 22.000000
3.38600016 1.24300003 0.69000006 0 187 255 22.000000
3.37900019 1.25700009 0.68100005 0 195 255 23.000000
3.37700009 1.26100004 0.67900002 0 195 255 23.000000
3.37300014 1.27200007 0.67100000 0 204 255 24.000000
3.37100005 1.27600002 0.66900003 0 204 255 24.000000
3.36900020 1.28000009 0.66700006 0 204 255 24.000000
3.36500025 1.28300011 0.66400003 0 212 255 25.000000
3.34700012 1.29900002 0.64900005 0 229 255 27.000000
3.35100007 1.32700002 0.63500005 0 255 123 61.000000
3.34900022 1.33000004 0.63200003 0 255 29 83.000000
3.34700012 1.33400011 0.62900001 0 255 12 87.000000
3.34600019 1.33900011 0.62600005 0 255 4 89.000000
3.34300017 1.34100008 0.62300003 0 255 8 88.000000
3.34400010 1.34700012 0.62000000 0 255 4 89.000000
3.34400010 1.35100007 0.61800003 0 255 4 89.000000
3.33600020 1.35200012 0.61300004 0 255 29 83.000000
3.32000017 1.37400007 0.59200001 0 255 208 41.000000
3.32000017 1.37900007 0.58800000 0 255 212 40.000000
3.31200027 1.39500010 0.57400000 0 255 204 42.000000
3.31200027 1.39900005 0.57100004 0 255 204 42.000000
3.31200027 1.40800011 0.56400001 0 255 187 46.000000
3.30900025 1.41200006 0.56000000 0 255 165 51.000000
3.30700016 1.41700006 0.55700004 0 255 106 65.000000
3.30000019 1.44700003 0.53000003 0 255 4 89.000000
3.30000019 1.45200002 0.52700001 0 255 8 88.000000
3.29800010 1.45600009 0.52200001 0 255 4 89.000000
3.29400015 1.46500003 0.51400000 0 255 8 88.000000
3.29100013 1.47300005 0.50600004 0 255 38 81.000000
3.28500009 1.47500002 0.50000000 0 255 80 71.000000
3.28000021 1.47800004 0.49500003 0 255 106 65.000000
3.27900004 1.48200011 0.49100003 0 255 119 62.000000
3.27400017 1.48500001 0.48600003 0 255 114 63.000000
3.27500010 1.49000013 0.48200002 0 255 110 64.000000
3.27000022 1.49300003 0.47700003 0 255 110 64.000000
3.26900005 1.49800003 0.47300002 0 255 110 64.000000
3.26900005 1.50300002 0.46900001 0 255 106 65.000000
3.26900005 1.52200007 0.45200002 0 255 25 84.000000
3.27000022 1.52700007 0.44700003 0 255 34 82.000000
3.27200007 1.53300011 0.44300002 0 255 0 90.000000
3.26400018 1.54000008 0.43300003 0 255 25 84.000000
3.25800014 1.54700005 0.42300001 0 255 12 87.000000
3.26000023 1.55200005 0.41900003 0 255 25 84.000000
3.26000023 1.55800009 0.41500002 0 255 34 82.000000
3.24000025 1.57900012 0.38200003 0 255 72 73.000000
3.23800015 1.58300006 0.37700000 0 255 72 73.000000
3.23700023 1.58700013 0.37200001 0 255 72 73.000000
3.23500013 1.59200013 0.36700001 0 255 72 73.000000
3.23700023 1.60800004 0.35300002 0 255 17 86.000000
3.23500013 1.61200011 0.34700000 0 255 25 84.000000
3.23200011 1.62500012 0.33200002 0 255 21 85.000000
3.23100019 1.63000011 0.32600001 0 255 12 87.000000
3.22900009 1.63300014 0.32100001 0 255 8 88.000000
3.22800016 1.64200008 0.31000000 0 255 12 87.000000
3.22500014 1.64700007 0.30500001 0 255 21 85.000000
3.20800018 1.66300011 0.27600002 0 255 76 72.000000
3.21000004 1.66900003 0.27100003 0 255 97 67.000000
3.20900011 1.67400002 0.26400000 0 255 102 66.000000
3.20700026 1.67700005 0.25900000 0 255 102 66.000000
3.20500016 1.68200004 0.25300002 0 255 102 66.000000
3.20800018 1.68900013 0.24800001 0 255 106 65.000000
3.20500016 1.69100010 0.24200001 0 255 85 70.000000
3.20600009 1.69700003 0.23600002 0 255 72 73.000000
3.20600009 1.70200002 0.23100001 0 255 29 83.000000
3.20000005 1.70400012 0.22500001 0 255 8 88.000000
3.20200014 1.71000004 0.21900001 51 255 0 102.000000
3.20300007 1.71500003 0.21300001 34 255 0 98.000000
3.19900012 1.71800005 0.20700002 51 255 0 102.000000
3.20000005 1.72400010 0.20200001 0 255 17 86.000000
3.26000023 1.60600007 0.20500001 0 255 85 70.000000
3.26100016 1.59500003 0.21500000 34 255 0 98.000000
3.26500010 1.59200013 0.22000001 38 255 0 99.000000
3.26900005 1.58800006 0.22600001 46 255 0 101.000000
3.27000022 1.58300006 0.23100001 29 255 0 97.000000
3.27200007 1.57900012 0.23600002 29 255 0 97.000000
3.27400017 1.57400012 0.24100001 29 255 0 97.000000
3.27300024 1.56700003 0.24600001 42 255 0 100.000000
3.28000021 1.56000006 0.25700000 38 255 0 99.000000
3.28100014 1.55600011 0.26200002 46 255 0 101.000000
3.28200006 1.55100012 0.26700002 46 255 0 101.000000
3.28500009 1.54700005 0.27300000 38 255 0 99.000000
3.28600025 1.54200006 0.27800003 46 255 0 101.000000
3.28800011 1.53800011 0.28300002 38 255 0 99.000000
3.28500009 1.52700007 0.29300001 0 255 25 84.000000
3.28900027 1.51800013 0.30300000 0 255 42 80.000000
3.29700017 1.51100004 0.31400001 38 255 0 99.000000
3.29800010 1.50200009 0.32400000 29 255 0 97.000000
3.30000019 1.49800003 0.32900003 29 255 0 97.000000
3.30100012 1.49400008 0.33400002 29 255 0 97.000000
3.30200005 1.48900008 0.33900002 21 255 0 95.000000
3.30800009 1.48700011 0.34400001 21 255 0 95.000000
3.30500007 1.48100007 0.34900001 38 255 0 99.000000
3.30600023 1.47700012 0.35400000 38 255 0 99.000000
3.31100011 1.47400010 0.35900003 21 255 0 95.000000
3.31300020 1.47000003 0.36400002 21 255 0 95.000000
3.30900025 1.46500003 0.37000000 29 255 0 97.000000
3.31600022 1.46200001 0.37600002 17 255 0 94.000000
3.31700015 1.45800006 0.38100001 17 255 0 94.000000
3.31800008 1.45400012 0.38600001 8 255 0 92.000000
3.31300020 1.43100011 0.40900001 0 255 131 59.000000
3.32400012 1.42600012 0.42100003 0 255 51 78.000000
3.32700014 1.42400002 0.42600003 0 255 17 86.000000
3.32500005 1.41900003 0.43000001 4 255 0 91.000000
3.32700014 1.41600001 0.43500003 17 255 0 94.000000
3.33000016 1.41300011 0.44100001 8 255 0 92.000000
3.33100009 1.40900004 0.44600001 8 255 0 92.000000
3.33100009 1.40600002 0.45100003 8 255 0 92.000000
3.33600020 1.40300012 0.45600003 34 255 0 98.000000
3.33700013 1.40000010 0.46100003 34 255 0 98.000000
3.33600020 1.38400006 0.48000002 8 255 0 92.000000
3.34300017 1.37600005 0.49500003 0 255 17 86.000000
3.34500027 1.37300003 0.50000000 0 255 42 80.000000
3.34100008 1.36800003 0.50500000 0 255 72 73.000000
3.34500027 1.36600006 0.51000005 0 255 144 56.000000
3.34200025 1.36200011 0.51400000 0 255 195 44.000000
3.34400010 1.34300005 0.54200006 0 255 216 39.000000
3.34800005 1.34000003 0.54700005 0 255 221 38.000000
3.35000014 1.33800006 0.55200005 0 255 229 36.000000
3.35100007 1.33500004 0.55700004 0 255 208 41.000000
3.35800028 1.33500004 0.56300002 0 255 161 52.000000
3.35700011 1.33200002 0.56700003 0 255 110 64.000000
3.35700011 1.32800007 0.57200003 0 255 29 83.000000
3.36000013 1.32600009 0.57700002 0 255 4 89.000000
3.35900021 1.32400012 0.58100003 0 255 0 90.000000
3.35900021 1.32000005 0.58600003 0 255 0 90.000000
3.36100006 1.31800008 0.59000003 12 255 0 93.000000
3.36000013 1.31500006 0.59500003 0 255 0 90.000000
3.36100006 1.31300008 0.59900004 0 255 4 89.000000
3.36200023 1.30800009 0.60800004 0 255 144 56.000000
3.36100006 1.30500007 0.61300004 0 255 212 40.000000
3.35800028 1.30200005 0.61600006 0 255 246 32.000000
3.35900021 1.30000007 0.62100005 0 255 255 30.000000
3.35900021 1.29600000 0.62500000 0 255 246 32.000000
3.35700011 1.28900003 0.63800001 0 246 255 29.000000
3.35900021 1.28700006 0.64200002 0 238 255 28.000000
3.36100006 1.28600001 0.64700001 0 246 255 29.000000
3.36900020 1.28200006 0.66100001 0 221 255 26.000000
3.37300014 1.28200006 0.66600001 0 229 255 27.000000
3.37300014 1.27900004 0.67100000 0 229 255 27.000000
3.37300014 1.27700007 0.67500001 0 212 255 25.000000
3.36500025 1.27300000 0.67800003 0 212 255 25.000000
3.37700009 1.26000011 0.71700001 0 255 21 85.000000
3.37100005 1.25600004 0.72000003 0 255 4 89.000000
3.37000012 1.25500011 0.72400004 0 255 4 89.000000
3.37300014 1.25400007 0.72800004 17 255 0 94.000000
3.36900020 1.25000000 0.73500001 0 255 4 89.000000
3.38000011 1.24600005 0.76000005 0 255 21 85.000000
3.38000011 1.24500000 0.76400006 0 255 21 85.000000
3.38000011 1.24400008 0.76800001 0 255 21 85.000000
3.38100004 1.24300003 0.77200001 0 255 8 88.000000
3.37900019 1.24200010 0.77500004 0 255 29 83.000000
3.37800026 1.24100006 0.77800006 0 255 21 85.000000
3.37900019 1.24000001 0.78200006 0 255 29 83.000000
3.38200021 1.24000001 0.78600001 0 255 21 85.000000
3.37500024 1.23600006 0.78800005 0 255 21 85.000000
3.37700009 1.23700011 0.79200006 0 255 29 83.000000
3.37900019 1.23700011 0.79600006 0 255 42 80.000000
3.37700009 1.23600006 0.79900002 0 255 80 71.000000
3.21700025 1.53900003 0.77500004 0 255 221 38.000000
3.21600008 1.54200006 0.77100003 0 255 221 38.000000
3.21400023 1.54400003 0.76700002 0 255 216 39.000000
3.20800018 1.55200005 0.75300002 0 255 212 40.000000
3.21100020 1.55600011 0.75000006 0 255 208 41.000000
3.21100020 1.56000006 0.74600005 0 255 208 41.000000
3.20700026 1.56200004 0.74100006 0 255 195 44.000000
3.20200014 1.59000003 0.70000005 0 255 106 65.000000
3.19500017 1.59000003 0.69400001 0 255 114 63.000000
3.19600010 1.59400010 0.68900001 0 255 131 59.000000
3.19000006 1.61100006 0.66000003 0 255 123 61.000000
3.18900013 1.61400008 0.65500003 0 255 123 61.000000
3.18600011 1.61900008 0.64500004 0 255 114 63.000000
3.18600011 1.62200010 0.64000005 0 255 114 63.000000
3.18500018 1.62500012 0.63500005 0 255 114 63.000000
3.18300009 1.62800002 0.62900001 0 255 110 64.000000
3.18300009 1.63100004 0.62400001 0 255 110 64.000000
3.18400025 1.63500011 0.61900002 0 255 106 65.000000
3.18400025 1.63900006 0.61400002 0 255 106 65.000000
3.18300009 1.64200008 0.60900003 0 255 97 67.000000
3.18600011 1.64500010 0.60400003 0 255 76 72.000000
3.18600011 1.64900005 0.59900004 0 255 46 79.000000
3.18700004 1.65300012 0.59400004 0 255 17 86.000000
3.18600011 1.65500009 0.58800000 0 255 25 84.000000
3.18300009 1.65800011 0.58200002 0 255 12 87.000000
3.18400025 1.66200006 0.57700002 29 255 0 97.000000
3.17800021 1.66500008 0.56500000 114 255 0 117.000000
3.17800021 1.66800010 0.55900002 102 255 0 114.000000
3.17600012 1.67000008 0.55300003 76 255 0 108.000000
3.17600012 1.67400002 0.54800004 89 255 0 111.000000
3.17600012 1.67700005 0.54200006 114 255 0 117.000000
3.17500019 1.68000007 0.53600001 76 255 0 108.000000
3.17900014 1.68800008 0.52500004 0 255 38 81.000000
3.17700005 1.69000006 0.51900005 0 255 38 81.000000
3.17200017 1.69100010 0.51200002 0 255 55 77.000000
3.16600013 1.69100010 0.50500000 0 255 59 76.000000
3.16800022 1.69500005 0.50000000 0 255 25 84.000000
3.15600014 1.72000003 0.43800002 255 252 0 150.000000
3.15500021 1.72200012 0.43200001 255 252 0 150.000000
3.15700006 1.73000014 0.42000002 255 247 0 152.000000
3.14300013 1.72500002 0.41200003 255 247 0 152.000000
3.15500021 1.73500013 0.40700001 255 252 0 150.000000
3.15000010 1.73500013 0.40000001 255 252 0 150.000000
3.15900016 1.74200010 0.39500001 0 255 0 90.000000
3.15100026 1.74100006 0.38700002 0 255 46 79.000000
3.15600014 1.74600005 0.38200003 0 255 34 82.000000
3.15300012 1.75100005 0.36900002 0 255 59 76.000000
3.15300012 1.75400007 0.36200002 0 255 59 76.000000
3.15000010 1.76700008 0.32900003 0 255 59 76.000000
3.14900017 1.77000010 0.32200003 0 255 72 73.000000
3.15200019 1.77300012 0.31600001 0 255 97 67.000000
3.15500021 1.77700007 0.30900002 0 255 110 64.000000
3.15200019 1.77900004 0.30300000 0 255 102 66.000000
3.15400004 1.78300011 0.29500002 0 255 93 68.000000
3.15600014 1.78900003 0.28200001 0 255 144 56.000000
3.19500017 1.73600006 0.20200001 0 255 85 70.000000
3.18900013 1.72900009 0.20800000 102 255 0 114.000000
3.18900013 1.72600007 0.21400002 229 255 0 144.000000
3.19500017 1.72500002 0.22100002 144 255 0 124.000000
3.19400024 1.71900010 0.22800002 102 255 0 114.000000
3.19400024 1.71600008 0.23400001 102 255 0 114.000000
3.19900012 1.71400011 0.24100001 59 255 0 104.000000
3.20100021 1.71200013 0.24700001 34 255 0 98.000000
3.19700027 1.70600009 0.25300002 0 255 8 88.000000
3.19700027 1.70200002 0.26000002 0 255 42 80.000000
3.19700027 1.69800007 0.26600000 0 255 51 78.000000
3.19600010 1.69400012 0.27200001 0 255 72 73.000000
3.19100022 1.68800008 0.27800003 0 255 51 78.000000
3.19700027 1.68300009 0.29100001 0 255 34 82.000000
3.20100021 1.67900014 0.30400002 17 255 0 94.000000
3.20700026 1.67400002 0.31900001 89 255 0 111.000000
3.20600009 1.66700006 0.33100003 68 255 0 106.000000
3.21200013 1.66700006 0.33800003 51 255 0 102.000000
3.21400023 1.66400003 0.34400001 51 255 0 102.000000
3.21400023 1.66200006 0.35100001 68 255 0 106.000000
3.21100020 1.65600014 0.35700002 76 255 0 108.000000
3.21100020 1.65300012 0.36300001 76 255 0 108.000000
3.20900011 1.62700009 0.41200003 0 255 51 78.000000
3.20800018 1.62100005 0.42400002 0 255 38 81.000000
3.21000004 1.61900008 0.43000001 0 255 51 78.000000
3.21300006 1.61700010 0.43700001 0 255 21 85.000000
3.21500015 1.61400008 0.44300002 0 255 25 84.000000
3.21200013 1.61000013 0.44900003 0 255 51 78.000000
3.21600008 1.60900009 0.45600003 0 255 25 84.000000
3.21600008 1.60700011 0.46200001 0 255 25 84.000000
3.21800017 1.60500002 0.46800002 0 255 51 78.000000
3.21800017 1.60300004 0.47400004 0 255 51 78.000000
3.22300005 1.60200012 0.48100004 0 255 25 84.000000
3.22600007 1.59800005 0.49300003 0 255 12 87.000000
3.22400022 1.59500003 0.49900001 0 255 25 84.000000
3.22200012 1.57400012 0.54700005 0 255 80 71.000000
3.22000027 1.56900012 0.55800003 0 255 76 72.000000
3.22500014 1.56800008 0.56500000 0 255 63 75.000000
3.22300005 1.56300008 0.57600003 0 255 85 70.000000
3.23500013 1.55100012 0.62900001 8 255 0 92.000000
3.23500013 1.54800010 0.63500005 8 255 0 92.000000
3.23900008 1.54800010 0.64100003 4 255 0 91.000000
3.23500013 1.54300010 0.65100002 17 255 0 94.000000
3.23700023 1.54000008 0.66200006 8 255 0 92.000000
3.23600006 1.53800011 0.66800004 8 255 0 92.000000
3.23500013 1.53100002 0.68900001 0 255 4 89.000000
3.23400021 1.53000009 0.69400001 0 255 4 89.000000
3.23400021 1.52800012 0.70000005 0 255 29 83.000000
3.23200011 1.52600002 0.70400006 0 255 68 74.000000
3.22400022 1.52200007 0.70800000 0 255 131 59.000000
3.23200011 1.52100003 0.72600001 0 255 182 47.000000
3.22500014 1.51600003 0.73400003 0 255 191 45.000000
3.22800016 1.51400006 0.74500006 0 255 195 44.000000
3.22900009 1.51100004 0.76100004 0 255 208 41.000000
3.22800016 1.50500011 0.79000002 0 238 255 28.000000
3.52700019 1.07300007 0.32300001 0 255 140 57.000000
3.51800013 1.08100009 0.32200003 4 255 0 91.000000
3.50200009 1.11700010 0.31600001 17 255 0 94.000000
3.49700022 1.12100005 0.31500003 0 255 4 89.000000
3.49600005 1.12500000 0.31500003 0 255 4 89.000000
3.49000025 1.13500011 0.31300002 0 255 21 85.000000
3.48900008 1.14000010 0.31200001 0 255 21 85.000000
3.48900008 1.14500010 0.31100002 0 255 17 86.000000
3.47900009 1.14800000 0.30900002 0 255 21 85.000000
3.48200011 1.15400004 0.30800003 0 255 80 71.000000
3.48100019 1.15900004 0.30700001 0 255 187 46.000000
3.47500014 1.16900003 0.30400002 0 255 212 40.000000
3.47500014 1.17500007 0.30400002 0 255 191 45.000000
3.46800017 1.17900002 0.30200002 0 255 165 51.000000
3.47000027 1.18400002 0.30100003 0 255 131 59.000000
3.44400024 1.22200000 0.29000002 0 255 12 87.000000
3.44200015 1.22800004 0.28800002 0 255 12 87.000000
3.43200016 1.24900007 0.28200001 0 255 144 56.000000
3.42000008 1.26800001 0.27400002 0 255 255 30.000000
3.41900015 1.27500010 0.27200001 0 246 255 29.000000
3.41700006 1.28000009 0.27100003 0 246 255 29.000000
3.41200018 1.28500009 0.26900002 0 246 255 29.000000
3.41300011 1.29100001 0.26700002 0 255 255 30.000000
3.40800023 1.29600000 0.26500002 0 255 255 30.000000
3.40600014 1.30100012 0.26300001 0 255 255 30.000000
3.40200019 1.30600011 0.26100001 0 255 246 32.000000
3.38700008 1.34500003 0.24700001 0 255 42 80.000000
3.38100004 1.36200011 0.24000001 4 255 0 91.000000
3.38100004 1.36900008 0.23700002 12 255 0 93.000000
3.37700009 1.37300003 0.23500001 4 255 0 91.000000
3.37500024 1.37900007 0.23300001 4 255 0 91.000000
3.36900020 1.38400006 0.23000000 0 255 17 86.000000
3.37000012 1.39000010 0.22800002 4 255 0 91.000000
3.36400008 1.39500010 0.22600001 0 255 8 88.000000
3.36600018 1.40300012 0.22400001 12 255 0 93.000000
3.36100006 1.40700006 0.22100002 0 255 17 86.000000
3.35600019 1.41200006 0.21800001 0 255 29 83.000000
3.35500026 1.41900003 0.21600001 0 255 12 87.000000
3.35700011 1.42500007 0.21400002 0 255 97 67.000000
3.12900019 1.77700007 0.39700001 255 252 0 150.000000
3.11800003 1.76700008 0.43000001 255 247 0 152.000000
3.12700009 1.76800013 0.45900002 255 252 0 150.000000
3.12900019 1.76600003 0.48600003 255 252 0 150.000000
3.13000011 1.76600003 0.50000000 0 255 34 82.000000
3.13100004 1.76500010 0.50600004 0 255 72 73.000000
3.13000011 1.76500010 0.51300001 0 255 72 73.000000
3.12500024 1.76200008 0.51900005 0 255 68 74.000000
3.12700009 1.76200008 0.52600002 0 255 68 74.000000
3.12800026 1.76200008 0.53300005 0 255 72 73.000000
3.12800026 1.76200008 0.53900003 0 255 42 80.000000
3.12500024 1.76000011 0.54500002 0 255 34 82.000000
3.12900019 1.76100004 0.55300003 0 255 38 81.000000
3.12800026 1.76100004 0.55900002 0 255 80 71.000000
3.12700009 1.75900006 0.56500000 0 255 102 66.000000
3.12800026 1.75900006 0.57200003 0 255 97 67.000000
3.12300014 1.75700009 0.57800001 0 255 97 67.000000
3.12400007 1.75600004 0.59100002 0 255 80 71.000000
3.12700009 1.75800014 0.59800005 0 255 38 81.000000
3.12800026 1.75700009 0.60500002 0 255 12 87.000000
3.12900019 1.75800014 0.61700004 34 255 0 98.000000
3.12900019 1.75800014 0.62400001 42 255 0 100.000000
3.12600017 1.75700009 0.63000005 34 255 0 98.000000
3.11600018 1.75100005 0.70100003 0 255 59 76.000000
3.11300015 1.75000012 0.70700002 0 255 114 63.000000
3.11300015 1.75000012 0.71300006 0 255 127 60.000000
3.11200023 1.74900007 0.71800005 0 255 131 59.000000
3.11400008 1.75100005 0.72400004 0 255 165 51.000000
3.45800018 1.19900000 0.21500000 0 255 4 89.000000
3.47300005 1.19200003 0.22200002 4 255 0 91.000000
3.47700024 1.18900001 0.22500001 0 255 8 88.000000
3.49500012 1.14000010 0.26000002 0 153 255 18.000000
3.49200010 1.13400006 0.26200002 0 161 255 19.000000
3.50100017 1.13200009 0.26600000 0 153 255 18.000000
3.49800014 1.12700009 0.26900002 0 153 255 18.000000
3.50100017 1.12300003 0.27200001 0 153 255 18.000000
3.51400018 1.08800006 0.30000001 0 204 255 24.000000
3.52200007 1.07400000 0.31200001 0 255 93 68.000000
3.52000022 1.07000005 0.31500003 0 255 165 51.000000
3.53200006 1.07000005 0.31900001 0 170 255 20.000000
3.48200011 1.06900001 0.62200004 0 93 255 11.000000
3.48100019 1.07200003 0.62100005 0 93 255 11.000000
3.48000026 1.07600009 0.62100005 0 93 255 11.000000
3.47600007 1.08200002 0.62000000 0 93 255 11.000000
3.47700024 1.08600008 0.61900002 0 93 255 11.000000
3.47300005 1.08800006 0.61800003 0 93 255 11.000000
3.47500014 1.09300005 0.61800003 0 93 255 11.000000
3.45500016 1.13000000 0.60800004 0 255 199 43.000000
3.45800018 1.13500011 0.60700005 0 255 170 50.000000
3.45700026 1.13900006 0.60600001 0 255 182 47.000000
3.45900011 1.14400005 0.60600001 0 255 161 52.000000
3.45500016 1.14600003 0.60400003 0 255 178 48.000000
3.42900014 1.17300010 0.58900005 0 161 255 19.000000
3.42600012 1.17600000 0.58700001 0 170 255 20.000000
3.42500019 1.18000007 0.58600003 0 170 255 20.000000
3.42800021 1.19000006 0.58400005 0 178 255 21.000000
3.42500019 1.19300008 0.58200002 0 178 255 21.000000
3.41900015 1.19700003 0.57900006 0 170 255 20.000000
3.42100024 1.20100009 0.57800001 0 187 255 22.000000
3.40700006 1.21500003 0.56900001 0 187 255 22.000000
3.39800024 1.24600005 0.55500001 0 255 4 89.000000
3.39400005 1.24900007 0.55200005 8 255 0 92.000000
3.37500024 1.29700005 0.52400005 0 255 8 88.000000
3.37700009 1.30200005 0.52200001 0 255 4 89.000000
3.37500024 1.30700004 0.51900005 0 255 0 90.000000
3.37500024 1.31100011 0.51600003 0 255 4 89.000000
3.36700010 1.31400001 0.51200002 0 255 29 83.000000
3.36700010 1.31900001 0.51000005 0 255 42 80.000000
3.36300015 1.32300007 0.50700003 0 255 68 74.000000
3.36100006 1.32700002 0.50400001 0 255 140 57.000000
3.34300017 1.37800002 0.46900001 0 255 17 86.000000
3.34400010 1.38300002 0.46600002 0 255 17 86.000000
3.34300017 1.38800001 0.46200001 0 255 17 86.000000
3.33500028 1.39600003 0.45500001 0 255 17 86.000000
3.33200026 1.40000010 0.45100003 0 255 8 88.000000
3.33500028 1.40700006 0.44800001 0 255 17 86.000000
3.33000016 1.41000009 0.44400004 0 255 8 88.000000
3.33100009 1.41600001 0.44100001 0 255 21 85.000000
3.31900024 1.41600001 0.43600002 0 255 51 78.000000
3.31500006 1.42000008 0.43200001 0 255 131 59.000000
3.30100012 1.45800006 0.40200001 0 255 106 65.000000
3.30400014 1.47000003 0.39400002 0 255 34 82.000000
3.30000019 1.47500002 0.39000002 0 255 38 81.000000
3.30100012 1.48600006 0.38200003 0 255 0 90.000000
3.29900026 1.49000013 0.37800002 0 255 0 90.000000
3.30000019 1.49700010 0.37400001 4 255 0 91.000000
3.29600024 1.50000012 0.37000000 0 255 0 90.000000
3.28500009 1.50200009 0.36500001 0 255 12 87.000000
3.28900027 1.50900006 0.36100003 0 255 38 81.000000
3.28800011 1.51400006 0.35700002 0 255 51 78.000000
3.27800012 1.51500010 0.35200003 0 255 106 65.000000
3.27700019 1.52000010 0.34800002 0 255 106 65.000000
3.27000022 1.52800012 0.33900002 0 255 102 66.000000
3.26300025 1.54800010 0.32100001 0 255 102 66.000000
3.26100016 1.55200005 0.31600001 0 255 102 66.000000
3.25900006 1.55800009 0.31200001 0 255 102 66.000000
3.25900006 1.56200004 0.30800003 0 255 97 67.000000
3.25700021 1.56800008 0.30300000 0 255 85 70.000000
3.25900006 1.57400012 0.29800001 0 255 38 81.000000
3.26000023 1.58000004 0.29300001 0 255 46 79.000000
3.26100016 1.58700013 0.28900000 0 255 34 82.000000
3.25800014 1.59000003 0.28400001 0 255 25 84.000000
3.24700022 1.60800004 0.26500002 0 255 72 73.000000
3.24100018 1.61200011 0.26000002 0 255 97 67.000000
3.23900008 1.61600006 0.25500003 0 255 97 67.000000
3.23700023 1.62100005 0.25000000 0 255 97 67.000000
3.23600006 1.62600005 0.24500000 0 255 110 64.000000
3.23200011 1.63000011 0.24000001 0 255 102 66.000000
3.23000026 1.64100003 0.23000000 0 255 110 64.000000
3.22800016 1.64600003 0.22500001 0 255 110 64.000000
3.22700024 1.65000010 0.22000001 0 255 110 64.000000
3.22600007 1.65600014 0.21500000 0 255 114 63.000000
3.22300005 1.65900004 0.21000001 0 255 110 64.000000
3.22600007 1.66700006 0.20500001 0 255 178 48.000000
3.29300022 1.51100004 0.21300001 0 255 246 32.000000
3.30100012 1.50800002 0.21800001 0 255 182 47.000000
3.30100012 1.50300002 0.22200002 0 255 131 59.000000
3.31400013 1.45600009 0.26300001 0 255 144 56.000000
3.32600021 1.45600009 0.26800001 0 255 157 53.000000
3.32700014 1.45100009 0.27300000 0 255 157 53.000000
3.32900023 1.44700003 0.27700001 0 255 157 53.000000
3.33100009 1.44200003 0.28200001 0 255 157 53.000000
3.33100009 1.43700004 0.28600001 0 255 157 53.000000
3.32700014 1.43000007 0.29000002 0 255 119 62.000000
3.33700013 1.42800009 0.29500002 0 255 51 78.000000
3.33900023 1.42400002 0.30000001 0 255 34 82.000000
3.34100008 1.41900003 0.30400002 0 255 80 71.000000
3.34200025 1.40900004 0.31300002 0 255 161 52.000000
3.34400010 1.40500009 0.31700000 0 255 165 51.000000
3.35200024 1.37900007 0.34400001 0 255 165 51.000000
3.35700011 1.37500012 0.34900001 0 255 178 48.000000
3.35800028 1.37000012 0.35300002 0 255 174 49.000000
3.35700011 1.36600006 0.35700002 0 255 187 46.000000
3.36200023 1.36300004 0.36300001 0 255 195 44.000000
3.36300015 1.35900009 0.36700001 0 255 195 44.000000
3.36400008 1.35400009 0.37200001 0 255 195 44.000000
3.36100006 1.34800005 0.37500003 0 255 208 41.000000
3.38100004 1.29900002 0.43300003 0 255 229 36.000000
3.38700008 1.29700005 0.43800002 0 255 238 34.000000
3.38900018 1.29400003 0.44200003 0 255 242 33.000000
3.39900017 1.25200009 0.49400002 0 246 255 29.000000
3.40900016 1.25200009 0.49900001 0 255 238 34.000000
3.40100026 1.24600005 0.50200003 0 255 199 43.000000
3.40800023 1.24500000 0.50700003 0 255 123 61.000000
3.40700006 1.24100006 0.51100004 0 255 119 62.000000
3.40900016 1.23900008 0.51600003 0 255 161 52.000000
3.41100025 1.23300004 0.52400005 0 221 255 26.000000
3.41500020 1.21000004 0.55600005 0 204 255 24.000000
3.41900015 1.20600009 0.56500000 0 187 255 22.000000
3.42200017 1.20200002 0.57300001 0 187 255 22.000000
3.42200017 1.19800007 0.57700002 0 187 255 22.000000
3.41900015 1.19500005 0.58000004 0 170 255 20.000000
3.41700006 1.19200003 0.58400005 0 178 255 21.000000
3.43200016 1.17800009 0.61700004 0 255 29 83.000000
3.43200016 1.17500007 0.62000000 0 255 21 85.000000
3.43500018 1.17400002 0.62500000 0 255 0 90.000000
3.43300009 1.17100000 0.62800002 0 255 8 88.000000
3.43600011 1.17100000 0.63200003 0 255 8 88.000000
3.43500018 1.16500008 0.64400005 0 255 12 87.000000
3.43600011 1.16300011 0.64800000 0 255 21 85.000000
3.43600011 1.16100001 0.65100002 0 255 8 88.000000
3.43800020 1.16000009 0.65500003 0 255 12 87.000000
3.43800020 1.15900004 0.65900004 0 255 4 89.000000
3.43700027 1.15600002 0.66200006 0 255 12 87.000000
3.43800020 1.15500009 0.66600001 0 255 4 89.000000
3.43800020 1.15300000 0.66900003 0 255 4 89.000000
3.44000006 1.15200007 0.67300004 0 255 21 85.000000
3.44300008 1.15100002 0.67700005 0 255 34 82.000000
3.44100022 1.14900005 0.68100005 0 255 4 89.000000
3.43800020 1.14700007 0.68300003 0 255 21 85.000000
3.43900013 1.14600003 0.68700004 0 255 76 72.000000
3.43600011 1.14400005 0.69000006 0 255 102 66.000000
3.44300008 1.13800001 0.71400005 0 255 110 64.000000
3.44300008 1.13700008 0.71800005 0 255 55 77.000000
3.44400024 1.13600004 0.72100002 0 255 17 86.000000
3.44300008 1.13500011 0.72400004 0 255 17 86.000000
3.43900013 1.13300002 0.72600001 0 255 34 82.000000
3.43700027 1.13100004 0.73200005 0 255 34 82.000000
3.44800019 1.13300002 0.73800004 0 255 25 84.000000
3.44400024 1.13200009 0.74000001 0 255 25 84.000000
3.44200015 1.13100004 0.74200004 0 255 4 89.000000
3.44500017 1.13000000 0.74600005 0 255 17 86.000000
3.44200015 1.12700009 0.76000005 0 255 17 86.000000
3.44400024 1.12800002 0.76400006 0 255 17 86.000000
3.44500017 1.12800002 0.76700002 0 255 8 88.000000
3.44300008 1.12700009 0.76900005 0 255 25 84.000000
3.44300008 1.12700009 0.77200001 0 255 25 84.000000
3.44200015 1.12600005 0.77500004 0 255 25 84.000000
3.43900013 1.12500000 0.77700001 0 255 17 86.000000
3.44100022 1.12600005 0.78000003 0 255 25 84.000000
3.44100022 1.12600005 0.78300005 0 255 17 86.000000
3.44100022 1.12600005 0.78500003 0 255 17 86.000000
3.43800020 1.12400007 0.78700006 0 255 17 86.000000
3.43700027 1.12500000 0.78900003 0 255 17 86.000000
3.43600011 1.12400007 0.79200006 0 255 17 86.000000
3.43900013 1.12500000 0.79500002 0 255 8 88.000000
3.30000019 1.37300003 0.79000002 0 144 255 17.000000
3.30200005 1.37700009 0.78800005 0 161 255 19.000000
3.29400015 1.39000010 0.77500004 0 170 255 20.000000
3.29300022 1.39300001 0.77200001 0 204 255 24.000000
3.29200006 1.39600003 0.76900005 0 204 255 24.000000
3.27400017 1.44700003 0.71900004 0 255 17 86.000000
3.24900007 1.48900008 0.66600001 0 255 182 47.000000
3.25300026 1.49400008 0.66300005 0 255 174 49.000000
3.25300026 1.49800003 0.65900004 0 255 140 57.000000
3.25100017 1.50100005 0.65400004 0 255 63 75.000000
3.23200011 1.54500008 0.59500003 0 255 102 66.000000
3.22900009 1.54700005 0.59000003 0 255 110 64.000000
3.22300005 1.55700004 0.57500005 0 255 102 66.000000
3.22300005 1.56100011 0.57100004 0 255 102 66.000000
3.22200012 1.56400013 0.56600004 0 255 102 66.000000
3.22300005 1.56900012 0.56100005 0 255 97 67.000000
3.22000027 1.57200003 0.55600005 0 255 102 66.000000
3.20900011 1.61500013 0.49300003 0 255 42 80.000000
3.20100021 1.61900008 0.48100004 0 255 51 78.000000
3.20300007 1.62400007 0.47600001 0 255 59 76.000000
3.20200014 1.62800002 0.47100002 0 255 59 76.000000
3.19700027 1.63300014 0.45900002 0 255 51 78.000000
3.19700027 1.63600004 0.45400003 0 255 51 78.000000
3.19900012 1.64200008 0.44900003 0 255 34 82.000000
3.19800019 1.64500010 0.44300002 0 255 34 82.000000
3.19700027 1.64900005 0.43800002 0 255 21 85.000000
3.19800019 1.65300012 0.43200001 0 255 25 84.000000
3.19000006 1.66900003 0.40300003 0 255 51 78.000000
3.19200015 1.68600011 0.37900001 12 255 0 93.000000
3.19300008 1.69000006 0.37300003 0 255 8 88.000000
3.19100022 1.69200003 0.36700001 0 255 42 80.000000
3.18500018 1.69300008 0.36100003 0 255 21 85.000000
3.18300009 1.69700003 0.35400000 0 255 25 84.000000
3.18500018 1.70100009 0.34900001 0 255 25 84.000000
3.18200016 1.70400012 0.34200001 0 255 34 82.000000
3.17700005 1.71600008 0.31700000 0 255 59 76.000000
3.17600012 1.72000003 0.31100002 0 255 59 76.000000
3.17800021 1.72400010 0.30500001 0 255 72 73.000000
3.17700005 1.72800004 0.29900002 0 255 25 84.000000
3.18100023 1.74100006 0.28000000 42 255 0 100.000000
3.17500019 1.75700009 0.24800001 51 255 0 102.000000
3.17700005 1.76200008 0.24200001 72 255 0 107.000000
3.17000008 1.76200008 0.23500001 102 255 0 114.000000
3.16900015 1.76500010 0.22800002 102 255 0 114.000000
3.17100024 1.77800012 0.20800000 34 255 0 98.000000
3.17200017 1.78100014 0.20100001 0 255 80 71.000000
3.21100020 1.67800009 0.20600002 0 255 208 41.000000
3.21500015 1.67500007 0.21200001 0 255 110 64.000000
3.21600008 1.67100012 0.21900001 0 255 97 67.000000
3.21500015 1.66600013 0.22500001 0 255 102 66.000000
3.21800017 1.65800011 0.23700002 0 255 97 67.000000
3.21800017 1.65400004 0.24300002 0 255 72 73.000000
3.21900010 1.64400005 0.25400001 0 255 76 72.000000
