ply
format ascii 1.0
comment Created by CloudCompare v2.11.3 (Anoia)
comment Created 2021/4/5 13:25
obj_info Generated by CloudCompare!
element vertex 1493
property float x
property float y
property float z
property uchar red
property uchar green
property uchar blue
property float scalar_intensity
end_header
3.454 1.192 -0.551 4 255 0 91 
3.451 1.195 -0.547 0 255 25 84 
3.454 1.2 -0.543 0 255 4 89 
3.445 1.201 -0.538 0 255 4 89 
3.448 1.206 -0.535 17 255 0 94 
3.453 1.212 -0.532 8 255 0 92 
3.443 1.213 -0.527 0 255 4 89 
3.445 1.219 -0.524 17 255 0 94 
3.442 1.221 -0.519 0 255 4 89 
3.44 1.225 -0.515 0 255 12 87 
3.441 1.23 -0.512 0 255 80 71 
3.44 1.234 -0.508 0 255 208 41 
3.433 1.236 -0.503 0 229 255 27 
3.435 1.242 -0.499 0 255 242 33 
3.434 1.246 -0.496 0 255 191 45 
3.438 1.252 -0.494 0 255 119 62 
3.431 1.255 -0.489 0 255 63 75 
3.429 1.258 -0.485 0 255 38 81 
3.427 1.263 -0.481 0 255 8 88 
3.429 1.268 -0.477 8 255 0 92 
3.425 1.271 -0.473 0 255 8 88 
3.427 1.277 -0.469 8 255 0 92 
3.425 1.281 -0.465 0 255 0 90 
3.424 1.285 -0.462 0 255 0 90 
3.412 1.287 -0.456 29 255 0 97 
3.412 1.292 -0.453 38 255 0 99 
3.417 1.298 -0.449 12 255 0 93 
3.415 1.303 -0.445 4 255 0 91 
3.416 1.308 -0.442 0 255 8 88 
3.408 1.311 -0.437 25 255 0 96 
3.408 1.316 -0.433 0 255 21 85 
3.41 1.322 -0.43 0 255 131 59 
3.401 1.325 -0.425 0 255 216 39 
3.4 1.329 -0.421 0 255 216 39 
3.398 1.334 -0.417 0 255 216 39 
3.391 1.336 -0.412 0 255 225 37 
3.395 1.343 -0.409 0 255 216 39 
3.394 1.348 -0.405 0 255 216 39 
3.388 1.352 -0.402 0 255 225 37 
3.391 1.358 -0.399 0 255 216 39 
3.383 1.362 -0.394 0 255 225 37 
3.385 1.368 -0.39 0 255 208 41 
3.38 1.372 -0.386 0 255 191 45 
3.378 1.377 -0.382 0 255 174 49 
3.385 1.385 -0.379 0 255 119 62 
3.377 1.387 -0.375 0 255 72 73 
3.38 1.395 -0.371 0 255 34 82 
3.374 1.399 -0.367 0 255 12 87 
3.37 1.403 -0.363 0 255 17 86 
3.374 1.41 -0.36 0 255 97 67 
3.363 1.412 -0.355 0 255 182 47 
3.365 1.419 -0.351 0 255 187 46 
3.355 1.421 -0.347 0 255 165 51 
3.358 1.428 -0.343 0 255 182 47 
3.354 1.432 -0.339 0 255 182 47 
3.35 1.437 -0.335 0 255 165 51 
3.353 1.445 -0.332 0 255 165 51 
3.345 1.448 -0.327 0 255 170 50 
3.345 1.454 -0.323 0 255 165 51 
3.344 1.46 -0.321 0 255 182 47 
3.344 1.466 -0.317 0 255 174 49 
3.337 1.47 -0.313 0 255 170 50 
3.335 1.476 -0.309 0 255 170 50 
3.335 1.481 -0.305 0 255 165 51 
3.333 1.488 -0.302 0 255 144 56 
3.329 1.492 -0.298 0 255 110 64 
3.332 1.5 -0.294 0 255 21 85 
3.332 1.507 -0.291 21 255 0 95 
3.328 1.511 -0.287 12 255 0 93 
3.323 1.516 -0.283 12 255 0 93 
3.325 1.524 -0.279 21 255 0 95 
3.323 1.53 -0.275 21 255 0 95 
3.321 1.536 -0.272 21 255 0 95 
3.316 1.54 -0.268 8 255 0 92 
3.314 1.546 -0.264 8 255 0 92 
3.313 1.553 -0.26 0 255 25 84 
3.302 1.554 -0.256 0 255 25 84 
3.303 1.562 -0.253 0 255 97 67 
3.303 1.569 -0.25 0 255 110 64 
3.3 1.575 -0.246 0 255 148 55 
3.298 1.581 -0.242 0 255 144 56 
3.294 1.585 -0.239 0 255 38 81 
3.294 1.593 -0.235 12 255 0 93 
3.291 1.599 -0.231 12 255 0 93 
3.291 1.606 -0.228 12 255 0 93 
3.287 1.612 -0.224 21 255 0 95 
3.286 1.618 -0.22 29 255 0 97 
3.281 1.623 -0.217 12 255 0 93 
3.278 1.629 -0.213 12 255 0 93 
3.278 1.635 -0.209 21 255 0 95 
3.275 1.642 -0.206 21 255 0 95 
3.274 1.648 -0.202 29 255 0 97 
3.27 1.654 -0.199 29 255 0 97 
3.262 1.658 -0.196 25 255 0 96 
3.262 1.666 -0.192 12 255 0 93 
3.262 1.673 -0.189 0 255 34 82 
3.252 1.675 -0.185 0 255 127 60 
3.249 1.681 -0.181 0 255 153 54 
3.25 1.689 -0.178 0 255 165 51 
3.246 1.695 -0.174 0 255 195 44 
3.247 1.703 -0.171 0 255 182 47 
3.239 1.706 -0.167 0 255 191 45 
3.245 1.718 -0.164 0 255 195 44 
3.236 1.72 -0.161 0 255 212 40 
3.24 1.73 -0.157 0 255 229 36 
3.237 1.736 -0.154 0 255 233 35 
3.234 1.742 -0.151 0 255 229 36 
3.232 1.749 -0.147 0 255 225 37 
3.226 1.754 -0.144 0 255 238 34 
3.22 1.759 -0.14 0 161 255 19 
3.209 1.761 -0.21 0 238 255 28 
3.209 1.754 -0.215 0 255 148 55 
3.216 1.751 -0.221 0 255 114 63 
3.211 1.742 -0.225 0 255 68 74 
3.217 1.739 -0.23 0 255 34 82 
3.221 1.734 -0.235 0 255 8 88 
3.224 1.729 -0.24 25 255 0 96 
3.227 1.725 -0.246 25 255 0 96 
3.229 1.719 -0.251 25 255 0 96 
3.231 1.713 -0.256 25 255 0 96 
3.234 1.708 -0.26 25 255 0 96 
3.234 1.702 -0.265 12 255 0 93 
3.24 1.699 -0.27 12 255 0 93 
3.242 1.693 -0.275 21 255 0 95 
3.244 1.687 -0.28 0 255 0 90 
3.239 1.678 -0.284 0 255 34 82 
3.234 1.67 -0.288 0 255 51 78 
3.238 1.665 -0.293 0 255 68 74 
3.24 1.659 -0.297 0 255 68 74 
3.242 1.653 -0.302 0 255 68 74 
3.241 1.647 -0.306 0 255 55 77 
3.243 1.641 -0.311 0 255 55 77 
3.243 1.635 -0.315 0 255 68 74 
3.251 1.632 -0.32 0 255 68 74 
3.253 1.627 -0.325 0 255 68 74 
3.255 1.621 -0.329 0 255 68 74 
3.257 1.615 -0.334 0 255 68 74 
3.26 1.61 -0.338 0 255 63 75 
3.26 1.604 -0.343 0 255 38 81 
3.268 1.601 -0.348 0 255 42 80 
3.272 1.596 -0.352 0 255 29 83 
3.274 1.591 -0.357 0 255 29 83 
3.269 1.583 -0.361 0 255 46 79 
3.274 1.577 -0.365 0 255 76 72 
3.273 1.571 -0.369 0 255 89 69 
3.272 1.565 -0.373 0 255 80 71 
3.28 1.561 -0.377 0 255 76 72 
3.276 1.553 -0.381 0 255 80 71 
3.279 1.548 -0.385 0 255 85 70 
3.283 1.544 -0.389 0 255 89 69 
3.288 1.539 -0.394 0 255 76 72 
3.287 1.533 -0.397 0 255 89 69 
3.293 1.529 -0.402 0 255 106 65 
3.294 1.523 -0.406 0 255 131 59 
3.299 1.519 -0.41 0 255 123 61 
3.302 1.515 -0.414 0 255 114 63 
3.303 1.508 -0.418 0 255 123 61 
3.305 1.503 -0.422 0 255 114 63 
3.311 1.499 -0.427 0 255 42 80 
3.315 1.495 -0.431 0 255 4 89 
3.316 1.489 -0.434 0 255 0 90 
3.32 1.485 -0.438 12 255 0 93 
3.322 1.479 -0.442 12 255 0 93 
3.323 1.473 -0.446 12 255 0 93 
3.325 1.468 -0.45 12 255 0 93 
3.326 1.461 -0.453 0 255 0 90 
3.332 1.458 -0.457 0 255 21 85 
3.328 1.45 -0.459 0 255 12 87 
3.329 1.444 -0.463 0 255 38 81 
3.332 1.439 -0.467 0 255 97 67 
3.331 1.433 -0.47 0 255 127 60 
3.335 1.428 -0.473 0 255 144 56 
3.338 1.423 -0.477 0 255 148 55 
3.336 1.416 -0.48 0 255 157 53 
3.342 1.412 -0.484 0 255 148 55 
3.348 1.409 -0.488 0 255 76 72 
3.35 1.403 -0.492 0 255 4 89 
3.349 1.397 -0.494 21 255 0 95 
3.352 1.393 -0.498 12 255 0 93 
3.353 1.386 -0.501 12 255 0 93 
3.357 1.383 -0.504 21 255 0 95 
3.361 1.378 -0.508 8 255 0 92 
3.358 1.37 -0.51 8 255 0 92 
3.363 1.367 -0.514 0 255 0 90 
3.366 1.361 -0.517 8 255 0 92 
3.367 1.356 -0.519 0 255 0 90 
3.37 1.352 -0.522 4 255 0 91 
3.372 1.346 -0.525 4 255 0 91 
3.372 1.34 -0.528 0 255 0 90 
3.374 1.336 -0.531 4 255 0 91 
3.382 1.332 -0.535 17 255 0 94 
3.377 1.325 -0.536 0 255 17 86 
3.382 1.321 -0.54 0 255 68 74 
3.385 1.317 -0.543 0 255 182 47 
3.384 1.31 -0.545 0 255 225 37 
3.393 1.307 -0.549 0 255 225 37 
3.394 1.302 -0.551 0 255 225 37 
3.391 1.296 -0.554 0 255 238 34 
3.393 1.291 -0.556 0 255 238 34 
3.396 1.286 -0.559 0 255 238 34 
3.409 1.285 -0.563 0 255 246 32 
3.4 1.277 -0.564 0 255 246 32 
3.406 1.273 -0.567 0 238 255 28 
3.408 1.268 -0.57 0 255 255 30 
3.41 1.263 -0.572 0 255 255 30 
3.41 1.258 -0.574 0 255 250 31 
3.413 1.253 -0.575 0 255 255 30 
3.413 1.248 -0.578 0 255 255 30 
3.42 1.244 -0.581 0 246 255 29 
3.425 1.241 -0.583 0 255 255 30 
3.425 1.235 -0.585 0 255 204 42 
3.427 1.23 -0.588 0 255 136 58 
3.429 1.226 -0.59 0 255 102 66 
3.434 1.222 -0.592 0 255 114 63 
3.431 1.215 -0.594 0 255 136 58 
3.436 1.212 -0.596 0 255 170 50 
3.44 1.208 -0.599 0 255 195 44 
3.438 1.202 -0.6 0 255 221 38 
3.44 1.197 -0.602 0 255 238 34 
3.443 1.194 -0.604 0 246 255 29 
3.443 1.189 -0.606 0 221 255 26 
3.446 1.184 -0.608 0 212 255 25 
3.444 1.179 -0.609 0 204 255 24 
3.449 1.175 -0.611 0 195 255 23 
3.452 1.171 -0.613 0 195 255 23 
3.454 1.166 -0.615 0 195 255 23 
3.454 1.162 -0.616 0 187 255 22 
3.458 1.157 -0.618 0 178 255 21 
3.459 1.153 -0.62 0 178 255 21 
3.461 1.148 -0.62 0 178 255 21 
3.465 1.145 -0.622 0 255 238 34 
3.476 1.143 -0.625 0 255 123 61 
3.467 1.136 -0.625 0 255 17 86 
3.471 1.132 -0.627 0 255 8 88 
3.473 1.128 -0.628 0 255 8 88 
3.473 1.123 -0.629 0 255 4 89 
3.475 1.12 -0.63 0 255 8 88 
3.476 1.114 -0.631 0 255 8 88 
3.482 1.112 -0.633 0 255 17 86 
3.481 1.107 -0.634 0 255 21 85 
3.484 1.103 -0.635 0 255 17 86 
3.485 1.099 -0.636 0 255 17 86 
3.496 1.097 -0.639 17 255 0 94 
3.487 1.091 -0.638 0 255 17 86 
3.489 1.086 -0.639 0 255 21 85 
3.49 1.082 -0.64 0 255 0 90 
3.494 1.078 -0.641 0 255 25 84 
3.504 1.077 -0.644 4 255 0 91 
3.504 1.072 -0.644 17 255 0 94 
3.507 1.069 -0.645 17 255 0 94 
3.508 1.065 -0.646 0 255 21 85 
3.502 1.059 -0.646 0 255 12 87 
3.514 1.058 -0.648 0 255 97 67 
3.514 1.054 -0.649 0 255 255 30 
3.516 1.051 -0.649 0 51 255 6 
3.583 1.048 -0.338 0 8 255 1 
3.562 1.047 -0.334 0 59 255 7 
3.563 1.052 -0.332 0 93 255 11 
3.561 1.056 -0.329 0 102 255 12 
3.56 1.06 -0.326 0 102 255 12 
3.56 1.064 -0.324 0 119 255 14 
3.558 1.068 -0.321 0 153 255 18 
3.556 1.072 -0.318 0 195 255 23 
3.56 1.078 -0.316 0 255 242 33 
3.559 1.083 -0.313 0 255 212 40 
3.558 1.087 -0.311 0 255 204 42 
3.551 1.09 -0.308 0 255 97 67 
3.55 1.094 -0.305 0 255 63 75 
3.545 1.098 -0.302 0 255 102 66 
3.549 1.104 -0.3 0 255 21 85 
3.548 1.109 -0.298 0 255 21 85 
3.549 1.114 -0.295 4 255 0 91 
3.543 1.118 -0.292 4 255 0 91 
3.528 1.118 -0.289 0 255 29 83 
3.53 1.124 -0.286 0 255 4 89 
3.535 1.131 -0.284 0 255 102 66 
3.532 1.135 -0.283 0 255 182 47 
3.527 1.139 -0.28 0 178 255 21 
3.517 1.141 -0.277 0 136 255 16 
3.513 1.146 -0.274 0 136 255 16 
3.521 1.154 -0.272 0 153 255 18 
3.52 1.158 -0.27 0 153 255 18 
3.518 1.164 -0.267 0 144 255 17 
3.509 1.167 -0.264 0 136 255 16 
3.511 1.173 -0.262 0 144 255 17 
3.511 1.178 -0.26 0 144 255 17 
3.513 1.184 -0.258 0 153 255 18 
3.506 1.188 -0.255 0 153 255 18 
3.497 1.191 -0.252 0 144 255 17 
3.501 1.198 -0.25 0 153 255 18 
3.49 1.2 -0.247 0 153 255 18 
3.499 1.209 -0.245 0 161 255 19 
3.495 1.213 -0.243 0 153 255 18 
3.49 1.218 -0.24 0 170 255 20 
3.491 1.225 -0.238 0 255 161 52 
3.482 1.228 -0.235 0 255 17 86 
3.487 1.235 -0.233 0 255 4 89 
3.482 1.24 -0.232 8 255 0 92 
3.481 1.246 -0.229 0 255 8 88 
3.479 1.251 -0.227 0 255 17 86 
3.475 1.256 -0.225 4 255 0 91 
3.476 1.263 -0.223 0 255 8 88 
3.471 1.267 -0.22 0 255 4 89 
3.472 1.274 -0.218 8 255 0 92 
3.465 1.278 -0.215 4 255 0 91 
3.463 1.284 -0.213 8 255 0 92 
3.459 1.289 -0.211 4 255 0 91 
3.46 1.295 -0.209 4 255 0 91 
3.459 1.301 -0.207 4 255 0 91 
3.452 1.305 -0.204 0 255 25 84 
3.448 1.311 -0.202 0 255 114 63 
3.447 1.317 -0.2 0 195 255 23 
3.438 1.321 -0.197 0 144 255 17 
3.439 1.328 -0.195 0 136 255 16 
3.436 1.333 -0.193 0 127 255 15 
3.432 1.339 -0.191 0 110 255 13 
3.431 1.345 -0.19 0 85 255 10 
3.43 1.352 -0.188 0 76 255 9 
3.426 1.358 -0.186 0 68 255 8 
3.42 1.362 -0.183 0 59 255 7 
3.419 1.368 -0.181 0 51 255 6 
3.413 1.373 -0.179 0 34 255 4 
3.398 1.375 -0.177 0 25 255 3 
3.389 1.385 -0.172 0 8 255 1 
3.439 1.411 -0.173 0 8 255 1 
3.174 1.679 -0.745 0 85 255 10 
3.164 1.676 -0.736 0 246 255 29 
3.167 1.677 -0.73 0 255 144 56 
3.166 1.678 -0.724 0 255 131 59 
3.171 1.682 -0.719 0 255 114 63 
3.163 1.68 -0.71 0 255 93 68 
3.164 1.68 -0.705 0 255 85 70 
3.166 1.683 -0.699 0 255 68 74 
3.164 1.684 -0.692 0 255 55 77 
3.166 1.687 -0.686 0 255 38 81 
3.173 1.691 -0.681 0 255 42 80 
3.169 1.69 -0.673 0 255 21 85 
3.173 1.694 -0.668 17 255 0 94 
3.172 1.695 -0.661 34 255 0 98 
3.175 1.698 -0.655 55 255 0 103 
3.174 1.698 -0.648 38 255 0 99 
3.169 1.698 -0.641 0 255 17 86 
3.17 1.7 -0.634 0 255 38 81 
3.168 1.701 -0.627 0 255 51 78 
3.166 1.701 -0.62 0 255 46 79 
3.167 1.703 -0.613 0 255 46 79 
3.171 1.707 -0.608 0 255 38 81 
3.168 1.707 -0.6 0 255 46 79 
3.165 1.708 -0.593 0 255 34 82 
3.168 1.711 -0.587 0 255 21 85 
3.165 1.711 -0.579 0 255 29 83 
3.173 1.717 -0.574 0 255 38 81 
3.167 1.716 -0.566 0 255 38 81 
3.171 1.72 -0.56 0 255 34 82 
3.169 1.72 -0.553 0 255 21 85 
3.164 1.72 -0.546 0 255 38 81 
3.167 1.723 -0.539 38 255 0 99 
3.163 1.723 -0.532 255 252 0 150 
3.156 1.721 -0.524 255 247 0 152 
3.164 1.727 -0.518 255 247 0 152 
3.157 1.726 -0.51 255 247 0 152 
3.163 1.731 -0.504 255 247 0 152 
3.154 1.729 -0.496 255 247 0 152 
3.139 1.723 -0.487 255 247 0 152 
3.156 1.735 -0.483 255 247 0 152 
3.169 1.743 -0.477 255 247 0 152 
3.171 1.747 -0.471 255 252 0 150 
3.164 1.745 -0.463 255 252 0 150 
3.165 1.748 -0.456 255 252 0 150 
3.166 1.751 -0.449 255 252 0 150 
3.169 1.754 -0.442 255 252 0 150 
3.174 1.759 -0.436 93 255 0 112 
3.17 1.76 -0.428 0 255 29 83 
3.169 1.762 -0.421 0 255 85 70 
3.171 1.765 -0.415 0 255 89 69 
3.169 1.767 -0.407 0 255 148 55 
3.228 1.758 -0.148 0 255 246 32 
3.223 1.747 -0.15 0 255 212 40 
3.226 1.741 -0.153 0 255 212 40 
3.229 1.734 -0.156 0 255 212 40 
3.235 1.729 -0.16 0 255 208 41 
3.233 1.721 -0.162 0 255 195 44 
3.237 1.714 -0.166 0 255 195 44 
3.242 1.709 -0.169 0 255 178 48 
3.243 1.701 -0.172 0 255 170 50 
3.247 1.695 -0.175 0 255 161 52 
3.252 1.69 -0.178 0 255 153 54 
3.254 1.683 -0.181 0 255 148 55 
3.257 1.677 -0.184 0 255 144 56 
3.26 1.67 -0.187 0 255 25 84 
3.265 1.665 -0.19 21 255 0 95 
3.269 1.659 -0.193 29 255 0 97 
3.271 1.653 -0.195 29 255 0 97 
3.274 1.646 -0.197 21 255 0 95 
3.272 1.637 -0.2 25 255 0 96 
3.279 1.633 -0.203 21 255 0 95 
3.282 1.626 -0.206 21 255 0 95 
3.284 1.619 -0.209 12 255 0 93 
3.286 1.613 -0.211 12 255 0 93 
3.291 1.607 -0.214 21 255 0 95 
3.293 1.6 -0.217 21 255 0 95 
3.296 1.594 -0.219 21 255 0 95 
3.3 1.588 -0.222 0 255 21 85 
3.297 1.58 -0.224 0 255 102 66 
3.3 1.573 -0.227 0 255 144 56 
3.306 1.568 -0.23 0 255 153 54 
3.307 1.561 -0.232 0 255 148 55 
3.309 1.554 -0.235 0 255 148 55 
3.311 1.548 -0.236 0 255 161 52 
3.314 1.542 -0.239 0 255 165 51 
3.317 1.535 -0.241 0 255 165 51 
3.324 1.53 -0.244 0 255 153 54 
3.322 1.522 -0.246 0 255 148 55 
3.328 1.518 -0.249 0 255 131 59 
3.329 1.511 -0.251 0 255 123 61 
3.337 1.506 -0.253 0 255 85 70 
3.342 1.501 -0.256 0 255 93 68 
3.337 1.492 -0.258 0 255 106 65 
3.339 1.485 -0.26 0 255 106 65 
3.345 1.48 -0.262 0 255 119 62 
3.346 1.473 -0.264 0 255 131 59 
3.349 1.467 -0.267 0 255 153 54 
3.347 1.459 -0.268 0 255 165 51 
3.354 1.455 -0.271 0 255 182 47 
3.355 1.447 -0.272 0 255 182 47 
3.363 1.444 -0.274 0 255 195 44 
3.359 1.434 -0.276 0 255 204 42 
3.367 1.431 -0.278 0 255 195 44 
3.364 1.423 -0.28 0 255 208 41 
3.37 1.418 -0.282 0 255 195 44 
3.373 1.411 -0.284 0 255 195 44 
3.377 1.406 -0.286 0 255 170 50 
3.384 1.401 -0.288 0 255 38 81 
3.386 1.396 -0.29 25 255 0 96 
3.387 1.389 -0.292 29 255 0 97 
3.392 1.383 -0.294 17 255 0 94 
3.392 1.376 -0.296 25 255 0 96 
3.399 1.372 -0.298 29 255 0 97 
3.397 1.364 -0.299 25 255 0 96 
3.403 1.359 -0.301 29 255 0 97 
3.405 1.354 -0.303 29 255 0 97 
3.409 1.348 -0.305 38 255 0 99 
3.411 1.342 -0.305 38 255 0 99 
3.412 1.336 -0.307 29 255 0 97 
3.425 1.333 -0.309 8 255 0 92 
3.416 1.323 -0.31 29 255 0 97 
3.426 1.32 -0.312 0 255 29 83 
3.429 1.314 -0.313 0 255 144 56 
3.427 1.307 -0.314 0 255 255 30 
3.43 1.301 -0.316 0 255 255 30 
3.436 1.296 -0.318 0 246 255 29 
3.436 1.29 -0.319 0 238 255 28 
3.441 1.285 -0.32 0 238 255 28 
3.442 1.279 -0.322 0 238 255 28 
3.445 1.273 -0.323 0 229 255 27 
3.446 1.267 -0.324 0 221 255 26 
3.452 1.263 -0.326 0 221 255 26 
3.455 1.257 -0.327 0 212 255 25 
3.455 1.251 -0.328 0 212 255 25 
3.46 1.245 -0.329 0 212 255 25 
3.464 1.241 -0.33 0 204 255 24 
3.467 1.235 -0.331 0 204 255 24 
3.471 1.23 -0.332 0 238 255 28 
3.478 1.226 -0.333 0 255 157 53 
3.478 1.22 -0.334 0 255 4 89 
3.477 1.213 -0.335 4 255 0 91 
3.481 1.208 -0.336 0 255 4 89 
3.484 1.203 -0.337 4 255 0 91 
3.485 1.197 -0.338 4 255 0 91 
3.489 1.193 -0.339 8 255 0 92 
3.494 1.188 -0.34 0 255 8 88 
3.495 1.182 -0.341 0 255 4 89 
3.498 1.177 -0.342 0 255 8 88 
3.499 1.171 -0.342 0 255 8 88 
3.501 1.166 -0.343 0 255 8 88 
3.503 1.16 -0.344 0 255 8 88 
3.503 1.154 -0.344 0 255 4 89 
3.508 1.15 -0.345 0 255 0 90 
3.513 1.145 -0.346 0 255 21 85 
3.519 1.142 -0.347 0 255 21 85 
3.518 1.136 -0.346 0 255 148 55 
3.519 1.13 -0.347 0 187 255 22 
3.522 1.125 -0.347 0 144 255 17 
3.523 1.12 -0.347 0 144 255 17 
3.525 1.114 -0.348 0 144 255 17 
3.535 1.112 -0.349 0 136 255 16 
3.531 1.105 -0.349 0 136 255 16 
3.536 1.101 -0.35 0 127 255 15 
3.533 1.094 -0.349 0 119 255 14 
3.535 1.09 -0.35 0 110 255 13 
3.541 1.086 -0.351 0 93 255 11 
3.539 1.08 -0.35 0 93 255 11 
3.544 1.076 -0.351 0 85 255 10 
3.545 1.071 -0.351 0 85 255 10 
3.545 1.066 -0.351 0 93 255 11 
3.556 1.063 -0.352 0 93 255 11 
3.559 1.058 -0.352 0 102 255 12 
3.56 1.054 -0.352 0 102 255 12 
3.56 1.049 -0.352 0 85 255 10 
3.564 1.044 -0.352 0 34 255 4 
3.124 1.783 -0.723 0 110 255 13 
3.12 1.778 -0.728 0 85 255 10 
3.284 1.454 -0.766 0 59 255 7 
3.276 1.452 -0.759 0 136 255 16 
3.283 1.458 -0.755 0 221 255 26 
3.275 1.458 -0.748 0 255 212 40 
3.277 1.461 -0.743 0 255 204 42 
3.276 1.463 -0.738 0 255 199 43 
3.279 1.467 -0.733 0 255 182 47 
3.273 1.467 -0.727 0 255 170 50 
3.275 1.471 -0.723 0 255 165 51 
3.275 1.473 -0.717 0 255 161 52 
3.271 1.475 -0.711 0 255 157 53 
3.271 1.477 -0.706 0 255 157 53 
3.272 1.48 -0.7 0 255 157 53 
3.271 1.483 -0.695 0 255 157 53 
3.27 1.485 -0.689 0 255 153 54 
3.273 1.488 -0.684 0 255 140 57 
3.27 1.49 -0.678 0 255 131 59 
3.268 1.493 -0.672 0 255 127 60 
3.273 1.498 -0.668 0 255 102 66 
3.272 1.501 -0.662 0 255 29 83 
3.269 1.503 -0.656 0 255 25 84 
3.272 1.507 -0.651 0 255 29 83 
3.264 1.507 -0.644 0 255 72 73 
3.258 1.507 -0.637 0 255 93 68 
3.264 1.513 -0.632 0 255 80 71 
3.26 1.514 -0.626 0 255 89 69 
3.257 1.516 -0.62 0 255 85 70 
3.26 1.521 -0.615 0 255 72 73 
3.259 1.524 -0.609 0 255 68 74 
3.256 1.525 -0.603 0 255 80 71 
3.255 1.529 -0.597 0 255 80 71 
3.258 1.534 -0.592 0 255 89 69 
3.257 1.537 -0.586 0 255 89 69 
3.257 1.54 -0.58 0 255 89 69 
3.254 1.542 -0.574 0 255 85 70 
3.253 1.546 -0.568 0 255 80 71 
3.25 1.548 -0.562 0 255 68 74 
3.254 1.554 -0.557 0 255 46 79 
3.26 1.559 -0.552 0 255 42 80 
3.266 1.566 -0.548 0 255 0 90 
3.261 1.567 -0.542 17 255 0 94 
3.259 1.571 -0.536 12 255 0 93 
3.258 1.574 -0.53 25 255 0 96 
3.259 1.578 -0.524 17 255 0 94 
3.26 1.583 -0.518 12 255 0 93 
3.259 1.586 -0.513 12 255 0 93 
3.261 1.591 -0.507 0 255 0 90 
3.25 1.59 -0.5 0 255 29 83 
3.244 1.591 -0.493 0 255 29 83 
3.24 1.594 -0.486 0 255 38 81 
3.24 1.597 -0.481 0 255 34 82 
3.239 1.601 -0.475 0 255 34 82 
3.24 1.606 -0.469 0 255 29 83 
3.237 1.608 -0.463 0 255 29 83 
3.236 1.612 -0.457 0 255 38 81 
3.238 1.617 -0.451 0 255 29 83 
3.244 1.624 -0.446 0 255 38 81 
3.243 1.628 -0.44 0 255 8 88 
3.246 1.635 -0.434 17 255 0 94 
3.24 1.636 -0.428 38 255 0 99 
3.241 1.641 -0.422 55 255 0 103 
3.24 1.645 -0.416 34 255 0 98 
3.244 1.651 -0.41 34 255 0 98 
3.24 1.653 -0.404 46 255 0 101 
3.236 1.656 -0.398 63 255 0 105 
3.23 1.658 -0.391 131 255 0 121 
3.227 1.661 -0.385 148 255 0 125 
3.229 1.667 -0.38 106 255 0 115 
3.232 1.672 -0.375 55 255 0 103 
3.231 1.676 -0.368 17 255 0 94 
3.226 1.679 -0.362 0 255 29 83 
3.219 1.681 -0.355 0 255 51 78 
3.218 1.685 -0.349 0 255 51 78 
3.22 1.691 -0.344 0 255 46 79 
3.225 1.697 -0.338 0 255 42 80 
3.229 1.705 -0.332 0 255 0 90 
3.225 1.708 -0.326 12 255 0 93 
3.222 1.711 -0.32 17 255 0 94 
3.225 1.717 -0.314 25 255 0 96 
3.222 1.721 -0.308 25 255 0 96 
3.219 1.724 -0.302 34 255 0 98 
3.217 1.729 -0.295 42 255 0 100 
3.215 1.732 -0.29 42 255 0 100 
3.216 1.738 -0.284 25 255 0 96 
3.215 1.743 -0.277 42 255 0 100 
3.209 1.744 -0.271 76 255 0 108 
3.208 1.749 -0.265 76 255 0 108 
3.213 1.757 -0.259 42 255 0 100 
3.208 1.76 -0.253 25 255 0 96 
3.208 1.765 -0.248 0 255 29 83 
3.179 1.77 -0.38 0 76 255 9 
3.176 1.764 -0.386 0 255 238 34 
3.181 1.764 -0.393 0 255 131 59 
3.176 1.758 -0.399 0 255 55 77 
3.173 1.752 -0.405 0 255 63 75 
3.177 1.751 -0.412 0 255 51 78 
3.175 1.746 -0.418 0 255 63 75 
3.183 1.746 -0.426 0 255 38 81 
3.18 1.741 -0.432 63 255 0 105 
3.181 1.738 -0.438 131 255 0 121 
3.181 1.734 -0.445 255 252 0 150 
3.168 1.723 -0.449 255 247 0 152 
3.178 1.725 -0.457 255 250 0 151 
3.166 1.715 -0.462 255 247 0 152 
3.159 1.708 -0.467 255 247 0 152 
3.173 1.711 -0.475 255 247 0 152 
3.17 1.706 -0.481 255 247 0 152 
3.182 1.708 -0.489 255 247 0 152 
3.171 1.699 -0.493 255 247 0 152 
3.148 1.683 -0.495 255 247 0 152 
3.149 1.681 -0.501 255 247 0 152 
3.149 1.676 -0.507 255 247 0 152 
3.175 1.685 -0.518 255 247 0 152 
3.175 1.682 -0.524 255 247 0 152 
3.184 1.682 -0.531 255 252 0 150 
3.193 1.683 -0.539 63 255 0 105 
3.193 1.679 -0.545 0 255 4 89 
3.197 1.677 -0.551 8 255 0 92 
3.2 1.675 -0.558 34 255 0 98 
3.202 1.672 -0.564 38 255 0 99 
3.205 1.67 -0.569 55 255 0 103 
3.204 1.665 -0.575 38 255 0 99 
3.205 1.661 -0.581 38 255 0 99 
3.209 1.659 -0.587 46 255 0 101 
3.207 1.654 -0.593 38 255 0 99 
3.211 1.652 -0.599 17 255 0 94 
3.213 1.65 -0.605 12 255 0 93 
3.21 1.644 -0.61 17 255 0 94 
3.215 1.643 -0.617 12 255 0 93 
3.214 1.637 -0.622 17 255 0 94 
3.216 1.635 -0.628 12 255 0 93 
3.212 1.629 -0.633 0 255 17 86 
3.213 1.625 -0.638 0 255 17 86 
3.214 1.622 -0.644 0 255 42 80 
3.209 1.616 -0.649 0 255 46 79 
3.21 1.612 -0.654 0 255 68 74 
3.208 1.607 -0.659 0 255 80 71 
3.209 1.604 -0.664 0 255 85 70 
3.21 1.6 -0.67 0 255 80 71 
3.215 1.598 -0.676 0 255 76 72 
3.214 1.594 -0.681 0 255 63 75 
3.221 1.594 -0.688 0 255 42 80 
3.218 1.588 -0.692 0 255 17 86 
3.228 1.588 -0.699 0 255 0 90 
3.227 1.584 -0.704 0 255 0 90 
3.229 1.58 -0.709 0 255 0 90 
3.227 1.576 -0.714 12 255 0 93 
3.228 1.572 -0.718 12 255 0 93 
3.227 1.568 -0.723 12 255 0 93 
3.229 1.564 -0.728 12 255 0 93 
3.233 1.562 -0.734 12 255 0 93 
3.229 1.556 -0.738 12 255 0 93 
3.228 1.552 -0.742 0 255 29 83 
3.236 1.552 -0.749 0 255 106 65 
3.244 1.551 -0.755 0 255 225 37 
3.428 1.161 -0.797 0 255 55 77 
3.429 1.163 -0.793 0 255 8 88 
3.429 1.165 -0.79 0 255 8 88 
3.429 1.167 -0.786 0 255 8 88 
3.429 1.17 -0.782 0 255 8 88 
3.429 1.171 -0.778 0 255 8 88 
3.427 1.173 -0.774 0 255 8 88 
3.426 1.175 -0.77 8 255 0 92 
3.429 1.178 -0.767 0 255 4 89 
3.426 1.179 -0.762 8 255 0 92 
3.428 1.182 -0.759 0 255 8 88 
3.429 1.185 -0.755 0 255 4 89 
3.424 1.186 -0.75 4 255 0 91 
3.424 1.188 -0.746 0 255 4 89 
3.424 1.191 -0.742 0 255 4 89 
3.425 1.193 -0.739 4 255 0 91 
3.426 1.197 -0.735 8 255 0 92 
3.424 1.199 -0.73 0 255 4 89 
3.422 1.2 -0.726 4 255 0 91 
3.421 1.203 -0.722 0 255 4 89 
3.423 1.206 -0.718 0 255 4 89 
3.424 1.209 -0.714 0 255 4 89 
3.421 1.211 -0.71 0 255 12 87 
3.417 1.212 -0.705 0 255 8 88 
3.417 1.216 -0.701 0 255 85 70 
3.418 1.219 -0.697 0 255 161 52 
3.418 1.221 -0.693 0 255 233 35 
3.415 1.224 -0.688 0 221 255 26 
3.414 1.227 -0.684 0 221 255 26 
3.411 1.228 -0.679 0 229 255 27 
3.41 1.232 -0.675 0 255 212 40 
3.409 1.235 -0.671 0 255 136 58 
3.412 1.239 -0.667 0 255 59 76 
3.415 1.243 -0.663 0 255 25 84 
3.409 1.244 -0.658 0 255 0 90 
3.41 1.248 -0.654 0 255 4 89 
3.409 1.251 -0.65 0 255 0 90 
3.407 1.254 -0.645 8 255 0 92 
3.408 1.257 -0.642 0 255 0 90 
3.405 1.26 -0.637 0 255 8 88 
3.405 1.264 -0.633 0 255 0 90 
3.404 1.267 -0.629 0 255 0 90 
3.403 1.271 -0.624 0 255 0 90 
3.401 1.273 -0.62 0 255 8 88 
3.403 1.278 -0.616 8 255 0 92 
3.401 1.282 -0.611 0 255 0 90 
3.4 1.284 -0.607 0 255 8 88 
3.401 1.288 -0.603 0 255 0 90 
3.399 1.292 -0.598 0 255 8 88 
3.396 1.295 -0.593 0 255 38 81 
3.393 1.298 -0.588 0 255 102 66 
3.388 1.301 -0.583 0 255 174 49 
3.385 1.304 -0.579 0 255 216 39 
3.386 1.307 -0.574 0 255 216 39 
3.384 1.311 -0.57 0 255 216 39 
3.378 1.313 -0.564 0 255 225 37 
3.385 1.32 -0.561 0 255 174 49 
3.388 1.325 -0.557 0 255 72 73 
3.384 1.329 -0.552 0 255 12 87 
3.376 1.33 -0.547 0 255 4 89 
3.373 1.332 -0.542 8 255 0 92 
3.373 1.337 -0.538 4 255 0 91 
3.376 1.343 -0.534 25 255 0 96 
3.375 1.347 -0.529 25 255 0 96 
3.37 1.35 -0.524 8 255 0 92 
3.368 1.354 -0.52 8 255 0 92 
3.368 1.359 -0.516 4 255 0 91 
3.367 1.363 -0.512 8 255 0 92 
3.366 1.367 -0.507 8 255 0 92 
3.364 1.371 -0.502 8 255 0 92 
3.364 1.376 -0.498 8 255 0 92 
3.363 1.38 -0.494 8 255 0 92 
3.361 1.384 -0.489 8 255 0 92 
3.361 1.39 -0.484 0 255 17 86 
3.356 1.393 -0.479 0 255 42 80 
3.349 1.394 -0.474 0 255 97 67 
3.349 1.4 -0.47 0 255 144 56 
3.349 1.405 -0.465 0 255 144 56 
3.354 1.412 -0.461 0 255 63 75 
3.35 1.416 -0.457 0 255 4 89 
3.347 1.419 -0.452 12 255 0 93 
3.348 1.426 -0.447 21 255 0 95 
3.345 1.43 -0.443 12 255 0 93 
3.342 1.434 -0.438 8 255 0 92 
3.339 1.438 -0.433 12 255 0 93 
3.341 1.444 -0.429 12 255 0 93 
3.339 1.448 -0.424 8 255 0 92 
3.338 1.454 -0.42 12 255 0 93 
3.334 1.457 -0.416 12 255 0 93 
3.332 1.462 -0.411 12 255 0 93 
3.332 1.467 -0.407 12 255 0 93 
3.33 1.472 -0.402 12 255 0 93 
3.328 1.477 -0.397 12 255 0 93 
3.328 1.483 -0.393 21 255 0 95 
3.325 1.487 -0.388 12 255 0 93 
3.321 1.491 -0.383 0 255 0 90 
3.319 1.496 -0.379 0 255 38 81 
3.314 1.5 -0.374 0 255 123 61 
3.312 1.505 -0.369 0 255 123 61 
3.312 1.511 -0.365 0 255 106 65 
3.309 1.516 -0.36 0 255 38 81 
3.312 1.522 -0.356 0 255 12 87 
3.31 1.528 -0.351 0 255 0 90 
3.31 1.534 -0.347 12 255 0 93 
3.307 1.538 -0.342 21 255 0 95 
3.305 1.544 -0.338 21 255 0 95 
3.304 1.549 -0.333 12 255 0 93 
3.302 1.555 -0.329 12 255 0 93 
3.301 1.56 -0.325 12 255 0 93 
3.299 1.566 -0.321 12 255 0 93 
3.297 1.57 -0.316 12 255 0 93 
3.295 1.576 -0.312 12 255 0 93 
3.291 1.581 -0.307 0 255 0 90 
3.287 1.586 -0.302 0 255 17 86 
3.284 1.591 -0.297 0 255 106 65 
3.279 1.595 -0.293 0 255 114 63 
3.277 1.6 -0.288 0 255 114 63 
3.275 1.605 -0.284 0 255 114 63 
3.275 1.613 -0.279 0 255 106 65 
3.27 1.617 -0.275 0 255 114 63 
3.266 1.621 -0.27 0 255 106 65 
3.267 1.627 -0.266 0 255 114 63 
3.264 1.633 -0.261 0 255 114 63 
3.266 1.641 -0.257 0 255 110 64 
3.262 1.646 -0.252 0 255 106 65 
3.262 1.652 -0.248 0 255 102 66 
3.257 1.657 -0.243 0 255 38 81 
3.262 1.665 -0.24 0 255 34 82 
3.256 1.67 -0.236 0 255 4 89 
3.252 1.675 -0.231 0 255 38 81 
3.246 1.678 -0.226 0 255 123 61 
3.248 1.686 -0.222 0 255 114 63 
3.242 1.69 -0.217 0 255 123 61 
3.241 1.696 -0.213 0 255 140 57 
3.236 1.701 -0.209 0 255 148 55 
3.24 1.71 -0.205 0 255 144 56 
3.234 1.714 -0.2 0 255 144 56 
3.232 1.72 -0.196 0 255 144 56 
3.227 1.724 -0.191 0 255 157 53 
3.232 1.734 -0.187 0 255 148 55 
3.223 1.737 -0.182 0 255 157 53 
3.225 1.745 -0.178 0 255 182 47 
3.224 1.751 -0.174 0 255 208 41 
3.222 1.757 -0.17 0 255 225 37 
3.222 1.764 -0.167 0 127 255 15 
3.215 1.764 -0.253 0 255 68 74 
3.21 1.756 -0.257 25 255 0 96 
3.208 1.749 -0.263 59 255 0 104 
3.21 1.745 -0.269 76 255 0 108 
3.209 1.738 -0.274 55 255 0 103 
3.22 1.738 -0.28 12 255 0 93 
3.218 1.732 -0.286 12 255 0 93 
3.217 1.725 -0.291 46 255 0 101 
3.221 1.722 -0.297 34 255 0 98 
3.225 1.717 -0.303 25 255 0 96 
3.23 1.714 -0.309 12 255 0 93 
3.227 1.707 -0.314 12 255 0 93 
3.229 1.702 -0.319 12 255 0 93 
3.225 1.695 -0.324 0 255 17 86 
3.23 1.691 -0.33 0 255 29 83 
3.228 1.685 -0.335 0 255 12 87 
3.229 1.679 -0.34 0 255 55 77 
3.232 1.675 -0.346 0 255 12 87 
3.238 1.672 -0.351 17 255 0 94 
3.235 1.665 -0.356 76 255 0 108 
3.237 1.66 -0.361 85 255 0 110 
3.236 1.654 -0.366 131 255 0 121 
3.238 1.649 -0.371 106 255 0 115 
3.242 1.646 -0.376 38 255 0 99 
3.246 1.642 -0.382 17 255 0 94 
3.252 1.639 -0.387 12 255 0 93 
3.254 1.634 -0.392 12 255 0 93 
3.255 1.629 -0.397 12 255 0 93 
3.255 1.623 -0.402 17 255 0 94 
3.255 1.617 -0.407 25 255 0 96 
3.26 1.614 -0.413 12 255 0 93 
3.262 1.609 -0.418 12 255 0 93 
3.264 1.604 -0.423 12 255 0 93 
3.263 1.598 -0.427 12 255 0 93 
3.264 1.593 -0.432 0 255 29 83 
3.258 1.584 -0.436 0 255 38 81 
3.257 1.577 -0.441 0 255 51 78 
3.261 1.574 -0.446 0 255 38 81 
3.269 1.572 -0.451 0 255 42 80 
3.273 1.568 -0.456 0 255 29 83 
3.28 1.565 -0.462 0 255 0 90 
3.279 1.559 -0.465 12 255 0 93 
3.28 1.553 -0.47 12 255 0 93 
3.282 1.549 -0.475 12 255 0 93 
3.287 1.546 -0.48 12 255 0 93 
3.287 1.54 -0.484 0 255 0 90 
3.289 1.535 -0.489 0 255 0 90 
3.288 1.529 -0.493 12 255 0 93 
3.292 1.526 -0.498 0 255 0 90 
3.289 1.518 -0.502 4 255 0 91 
3.293 1.514 -0.506 4 255 0 91 
3.297 1.51 -0.511 0 255 0 90 
3.294 1.504 -0.515 0 255 34 82 
3.288 1.495 -0.518 0 255 63 75 
3.289 1.49 -0.522 0 255 89 69 
3.289 1.484 -0.526 0 255 89 69 
3.298 1.483 -0.532 0 255 114 63 
3.3 1.478 -0.536 0 255 114 63 
3.3 1.472 -0.54 0 255 123 61 
3.305 1.468 -0.545 0 255 106 65 
3.304 1.463 -0.547 0 255 114 63 
3.307 1.458 -0.552 0 255 131 59 
3.307 1.453 -0.556 0 255 131 59 
3.311 1.448 -0.56 0 255 106 65 
3.321 1.447 -0.565 0 255 76 72 
3.316 1.439 -0.568 0 255 38 81 
3.322 1.437 -0.573 0 255 34 82 
3.321 1.431 -0.576 12 255 0 93 
3.323 1.426 -0.58 12 255 0 93 
3.325 1.421 -0.584 21 255 0 95 
3.324 1.416 -0.587 0 255 4 89 
3.332 1.413 -0.592 0 255 63 75 
3.327 1.406 -0.595 0 255 144 56 
3.329 1.401 -0.598 0 255 178 48 
3.331 1.397 -0.602 0 255 182 47 
3.328 1.39 -0.605 0 255 170 50 
3.333 1.386 -0.609 0 255 178 48 
3.338 1.383 -0.613 0 255 182 47 
3.337 1.377 -0.616 0 255 182 47 
3.334 1.37 -0.619 0 255 195 44 
3.34 1.367 -0.623 0 255 182 47 
3.346 1.365 -0.627 0 255 191 45 
3.345 1.359 -0.629 0 255 191 45 
3.349 1.355 -0.633 0 255 195 44 
3.349 1.35 -0.636 0 255 216 39 
3.358 1.348 -0.64 0 255 216 39 
3.356 1.342 -0.643 0 255 208 41 
3.361 1.339 -0.647 0 255 212 40 
3.361 1.333 -0.65 0 255 216 39 
3.363 1.328 -0.653 0 255 216 39 
3.365 1.324 -0.656 0 255 153 54 
3.37 1.321 -0.66 0 255 34 82 
3.362 1.313 -0.661 0 255 4 89 
3.37 1.31 -0.665 29 255 0 97 
3.368 1.304 -0.667 17 255 0 94 
3.369 1.3 -0.67 17 255 0 94 
3.38 1.298 -0.675 0 255 21 85 
3.376 1.293 -0.677 0 255 8 88 
3.383 1.29 -0.68 0 255 29 83 
3.384 1.285 -0.683 0 255 55 77 
3.385 1.281 -0.686 0 255 85 70 
3.384 1.276 -0.688 0 255 123 61 
3.395 1.274 -0.692 0 255 161 52 
3.39 1.267 -0.694 0 255 208 41 
3.391 1.262 -0.696 0 255 216 39 
3.394 1.258 -0.699 0 255 246 32 
3.395 1.254 -0.7 0 246 255 29 
3.396 1.25 -0.703 0 238 255 28 
3.399 1.246 -0.705 0 229 255 27 
3.402 1.241 -0.708 0 229 255 27 
3.408 1.239 -0.711 0 255 216 39 
3.406 1.234 -0.713 0 255 89 69 
3.41 1.23 -0.715 0 255 34 82 
3.405 1.224 -0.716 0 255 4 89 
3.415 1.222 -0.72 8 255 0 92 
3.416 1.217 -0.722 8 255 0 92 
3.418 1.214 -0.724 4 255 0 91 
3.419 1.21 -0.726 4 255 0 91 
3.421 1.205 -0.729 0 255 4 89 
3.421 1.2 -0.73 4 255 0 91 
3.424 1.197 -0.732 0 255 4 89 
3.425 1.192 -0.734 0 255 4 89 
3.425 1.188 -0.736 0 255 4 89 
3.43 1.185 -0.738 8 255 0 92 
3.429 1.181 -0.739 4 255 0 91 
3.429 1.176 -0.741 0 255 4 89 
3.432 1.172 -0.743 8 255 0 92 
3.429 1.167 -0.744 4 255 0 91 
3.435 1.164 -0.746 8 255 0 92 
3.439 1.161 -0.748 0 255 4 89 
3.44 1.157 -0.75 0 255 8 88 
3.441 1.153 -0.75 0 255 8 88 
3.44 1.149 -0.751 0 255 38 81 
3.442 1.145 -0.753 0 255 153 54 
3.444 1.141 -0.754 0 238 255 28 
3.446 1.138 -0.756 0 170 255 20 
3.447 1.133 -0.757 0 161 255 19 
3.45 1.131 -0.759 0 161 255 19 
3.452 1.127 -0.76 0 153 255 18 
3.454 1.123 -0.761 0 153 255 18 
3.452 1.119 -0.761 0 153 255 18 
3.455 1.116 -0.763 0 144 255 17 
3.459 1.112 -0.765 0 144 255 17 
3.455 1.107 -0.765 0 136 255 16 
3.464 1.106 -0.767 0 136 255 16 
3.463 1.102 -0.767 0 144 255 17 
3.467 1.1 -0.769 0 144 255 17 
3.468 1.096 -0.77 0 144 255 17 
3.468 1.092 -0.77 0 144 255 17 
3.472 1.089 -0.772 0 136 255 16 
3.473 1.086 -0.773 0 136 255 16 
3.475 1.082 -0.773 0 136 255 16 
3.476 1.079 -0.774 0 136 255 16 
3.477 1.075 -0.775 0 136 255 16 
3.48 1.072 -0.775 0 136 255 16 
3.48 1.069 -0.776 0 136 255 16 
3.479 1.065 -0.776 0 136 255 16 
3.484 1.063 -0.777 0 127 255 15 
3.48 1.059 -0.777 0 93 255 11 
3.483 1.056 -0.777 0 59 255 7 
3.493 1.055 -0.78 0 8 255 1 
3.546 1.048 -0.489 0 102 255 12 
3.546 1.051 -0.486 0 255 221 38 
3.543 1.054 -0.482 0 255 80 71 
3.543 1.057 -0.479 0 255 21 85 
3.54 1.06 -0.476 4 255 0 91 
3.539 1.063 -0.473 4 255 0 91 
3.545 1.069 -0.47 0 255 21 85 
3.546 1.073 -0.467 0 255 21 85 
3.524 1.071 -0.462 0 255 25 84 
3.523 1.075 -0.458 0 255 25 84 
3.536 1.083 -0.457 0 255 21 85 
3.532 1.085 -0.453 0 255 8 88 
3.532 1.089 -0.45 0 255 21 85 
3.519 1.09 -0.446 0 255 25 84 
3.529 1.097 -0.444 0 255 21 85 
3.527 1.101 -0.441 4 255 0 91 
3.521 1.103 -0.437 0 255 4 89 
3.517 1.106 -0.433 0 255 25 84 
3.514 1.109 -0.43 0 255 21 85 
3.515 1.114 -0.427 0 255 29 83 
3.515 1.118 -0.424 0 255 29 83 
3.512 1.122 -0.421 0 255 21 85 
3.512 1.127 -0.418 0 255 29 83 
3.511 1.131 -0.414 0 255 25 84 
3.508 1.135 -0.411 0 255 140 57 
3.512 1.14 -0.409 0 255 195 44 
3.505 1.144 -0.406 0 255 157 53 
3.511 1.149 -0.403 0 255 97 67 
3.506 1.154 -0.4 0 255 46 79 
3.5 1.156 -0.396 0 255 8 88 
3.498 1.16 -0.393 0 255 8 88 
3.495 1.165 -0.389 0 255 4 89 
3.495 1.169 -0.386 0 255 8 88 
3.494 1.175 -0.383 0 255 8 88 
3.493 1.179 -0.38 0 255 8 88 
3.491 1.183 -0.377 0 255 4 89 
3.484 1.186 -0.373 0 255 4 89 
3.486 1.192 -0.37 8 255 0 92 
3.485 1.197 -0.367 8 255 0 92 
3.481 1.2 -0.364 0 255 4 89 
3.479 1.205 -0.361 0 255 4 89 
3.478 1.211 -0.358 0 255 4 89 
3.477 1.215 -0.355 0 255 4 89 
3.47 1.219 -0.351 0 255 34 82 
3.471 1.225 -0.348 0 255 110 64 
3.467 1.228 -0.345 0 246 255 29 
3.466 1.234 -0.342 0 204 255 24 
3.458 1.237 -0.338 0 212 255 25 
3.459 1.242 -0.335 0 204 255 24 
3.459 1.248 -0.333 0 195 255 23 
3.456 1.253 -0.33 0 204 255 24 
3.456 1.259 -0.327 0 204 255 24 
3.455 1.265 -0.324 0 221 255 26 
3.448 1.268 -0.321 0 221 255 26 
3.447 1.274 -0.318 0 221 255 26 
3.444 1.278 -0.315 0 229 255 27 
3.441 1.283 -0.312 0 221 255 26 
3.444 1.291 -0.309 0 221 255 26 
3.438 1.294 -0.306 0 229 255 27 
3.435 1.3 -0.303 0 238 255 28 
3.436 1.305 -0.3 0 238 255 28 
3.423 1.307 -0.296 0 255 216 39 
3.434 1.317 -0.294 0 255 72 73 
3.424 1.32 -0.29 0 255 21 85 
3.428 1.327 -0.288 0 255 42 80 
3.428 1.334 -0.285 0 255 72 73 
3.422 1.338 -0.282 0 255 114 63 
3.421 1.345 -0.28 0 255 144 56 
3.417 1.349 -0.277 0 255 195 44 
3.41 1.353 -0.273 0 255 221 38 
3.413 1.361 -0.271 0 255 242 33 
3.403 1.363 -0.267 0 255 238 34 
3.4 1.368 -0.264 0 255 238 34 
3.399 1.375 -0.262 0 255 238 34 
3.397 1.381 -0.259 0 255 238 34 
3.393 1.386 -0.256 0 255 233 35 
3.395 1.393 -0.253 0 255 238 34 
3.396 1.401 -0.251 0 255 204 42 
3.394 1.406 -0.248 0 255 55 77 
3.397 1.414 -0.245 0 255 8 88 
3.384 1.416 -0.242 17 255 0 94 
3.384 1.423 -0.239 29 255 0 97 
3.377 1.427 -0.236 25 255 0 96 
3.379 1.435 -0.233 46 255 0 101 
3.376 1.44 -0.231 38 255 0 99 
3.373 1.447 -0.228 38 255 0 99 
3.373 1.454 -0.226 29 255 0 97 
3.366 1.458 -0.223 25 255 0 96 
3.363 1.464 -0.22 29 255 0 97 
3.354 1.467 -0.217 21 255 0 95 
3.358 1.476 -0.215 29 255 0 97 
3.356 1.482 -0.212 29 255 0 97 
3.359 1.491 -0.21 0 255 21 85 
3.346 1.493 -0.207 0 255 144 56 
3.344 1.499 -0.204 0 255 195 44 
3.342 1.505 -0.201 0 255 195 44 
3.339 1.512 -0.199 0 255 195 44 
3.341 1.52 -0.196 0 255 208 41 
3.334 1.524 -0.193 0 255 195 44 
3.332 1.531 -0.191 0 255 191 45 
3.331 1.538 -0.188 0 255 195 44 
3.325 1.543 -0.185 0 255 195 44 
3.325 1.55 -0.183 0 255 195 44 
3.316 1.554 -0.181 0 255 208 41 
3.318 1.562 -0.179 0 255 195 44 
3.311 1.567 -0.176 0 255 208 41 
3.313 1.575 -0.174 0 255 195 44 
3.313 1.583 -0.171 0 255 72 73 
3.306 1.587 -0.169 21 255 0 95 
3.309 1.596 -0.166 29 255 0 97 
3.302 1.602 -0.164 8 255 0 92 
3.297 1.607 -0.161 21 255 0 95 
3.297 1.615 -0.159 8 255 0 92 
3.293 1.62 -0.156 0 255 12 87 
3.289 1.626 -0.154 0 255 34 82 
3.295 1.637 -0.152 0 255 34 82 
3.289 1.643 -0.149 0 255 68 74 
3.291 1.651 -0.148 0 255 114 63 
3.283 1.655 -0.145 0 255 161 52 
3.284 1.664 -0.143 0 255 212 40 
3.285 1.673 -0.141 0 187 255 22 
3.271 1.674 -0.138 0 102 255 12 
3.26 1.677 -0.136 0 42 255 5 
3.265 1.687 -0.134 0 17 255 2 
3.132 1.76 -0.735 0 161 255 19 
3.134 1.761 -0.728 0 255 110 64 
3.131 1.76 -0.721 17 255 0 94 
3.13 1.759 -0.714 63 255 0 105 
3.13 1.76 -0.708 63 255 0 105 
3.13 1.76 -0.701 85 255 0 110 
3.131 1.761 -0.694 85 255 0 110 
3.135 1.763 -0.688 76 255 0 108 
3.132 1.763 -0.681 76 255 0 108 
3.138 1.766 -0.675 68 255 0 106 
3.134 1.765 -0.668 85 255 0 110 
3.134 1.765 -0.661 119 255 0 118 
3.131 1.765 -0.654 148 255 0 125 
3.132 1.766 -0.647 148 255 0 125 
3.136 1.768 -0.641 106 255 0 115 
3.134 1.768 -0.634 4 255 0 91 
3.134 1.768 -0.627 0 255 55 77 
3.132 1.768 -0.619 0 255 110 64 
3.134 1.771 -0.613 0 255 165 51 
3.142 1.775 -0.607 0 255 204 42 
3.143 1.776 -0.6 0 255 229 36 
3.144 1.778 -0.595 0 229 255 27 
3.218 1.759 -0.172 0 161 255 19 
3.222 1.754 -0.175 0 255 182 47 
3.22 1.746 -0.179 0 255 195 44 
3.225 1.74 -0.183 0 255 165 51 
3.224 1.733 -0.186 0 255 157 53 
3.225 1.726 -0.19 0 255 148 55 
3.234 1.723 -0.195 0 255 144 56 
3.234 1.715 -0.198 0 255 144 56 
3.235 1.709 -0.202 0 255 157 53 
3.242 1.705 -0.206 0 255 144 56 
3.239 1.696 -0.21 0 255 131 59 
3.243 1.691 -0.214 0 255 127 60 
3.246 1.685 -0.218 0 255 131 59 
3.249 1.679 -0.222 0 255 127 60 
3.244 1.669 -0.225 0 255 76 72 
3.259 1.669 -0.229 0 255 25 84 
3.256 1.661 -0.233 0 255 34 82 
3.261 1.656 -0.236 0 255 25 84 
3.262 1.649 -0.239 0 255 29 83 
3.257 1.639 -0.242 0 255 76 72 
3.267 1.637 -0.246 0 255 106 65 
3.267 1.629 -0.25 0 255 114 63 
3.274 1.626 -0.254 0 255 114 63 
3.27 1.617 -0.257 0 255 123 61 
3.273 1.61 -0.26 0 255 123 61 
3.277 1.606 -0.264 0 255 114 63 
3.28 1.599 -0.268 0 255 114 63 
3.282 1.593 -0.271 0 255 114 63 
3.284 1.586 -0.274 0 255 123 61 
3.29 1.582 -0.278 0 255 42 80 
3.298 1.579 -0.282 8 255 0 92 
3.299 1.572 -0.285 12 255 0 93 
3.301 1.565 -0.289 12 255 0 93 
3.305 1.56 -0.292 21 255 0 95 
3.306 1.554 -0.294 12 255 0 93 
3.308 1.547 -0.297 12 255 0 93 
3.31 1.541 -0.301 12 255 0 93 
3.311 1.534 -0.304 0 255 0 90 
3.315 1.529 -0.307 12 255 0 93 
3.318 1.523 -0.31 12 255 0 93 
3.323 1.518 -0.314 12 255 0 93 
3.322 1.511 -0.316 12 255 0 93 
3.325 1.504 -0.32 12 255 0 93 
3.326 1.498 -0.323 0 255 4 89 
3.336 1.495 -0.326 0 255 85 70 
3.332 1.487 -0.329 0 255 153 54 
3.336 1.481 -0.332 0 255 157 53 
3.337 1.475 -0.335 0 255 153 54 
3.338 1.468 -0.337 0 255 165 51 
3.342 1.464 -0.341 0 255 157 53 
3.345 1.457 -0.343 0 255 157 53 
3.342 1.45 -0.345 0 255 161 52 
3.348 1.445 -0.348 0 255 157 53 
3.347 1.437 -0.35 0 255 161 52 
3.353 1.433 -0.353 0 255 157 53 
3.352 1.426 -0.356 0 255 165 51 
3.355 1.42 -0.359 0 255 165 51 
3.361 1.415 -0.362 0 255 153 54 
3.362 1.409 -0.364 0 255 131 59 
3.368 1.405 -0.367 0 255 123 61 
3.367 1.398 -0.37 0 255 114 63 
3.37 1.393 -0.372 0 255 119 62 
3.376 1.388 -0.375 0 255 140 57 
3.377 1.382 -0.377 0 255 165 51 
3.375 1.375 -0.379 0 255 182 47 
3.379 1.369 -0.382 0 255 195 44 
3.386 1.365 -0.385 0 255 208 41 
3.384 1.358 -0.387 0 255 216 39 
3.393 1.355 -0.39 0 255 216 39 
3.394 1.349 -0.391 0 255 216 39 
3.393 1.341 -0.393 0 255 225 37 
3.395 1.335 -0.395 0 255 225 37 
3.395 1.33 -0.397 0 255 225 37 
3.401 1.325 -0.4 0 255 233 35 
3.408 1.321 -0.403 0 255 225 37 
3.415 1.318 -0.405 0 255 131 59 
3.411 1.31 -0.407 0 255 12 87 
3.423 1.307 -0.41 0 255 0 90 
3.423 1.301 -0.412 0 255 8 88 
3.424 1.295 -0.414 0 255 8 88 
3.429 1.29 -0.416 8 255 0 92 
3.43 1.285 -0.418 0 255 0 90 
3.43 1.278 -0.419 0 255 8 88 
3.434 1.274 -0.422 8 255 0 92 
3.437 1.268 -0.423 8 255 0 92 
3.44 1.263 -0.425 0 255 0 90 
3.439 1.257 -0.427 8 255 0 92 
3.446 1.253 -0.429 21 255 0 95 
3.448 1.248 -0.431 21 255 0 95 
3.446 1.241 -0.431 0 255 0 90 
3.448 1.235 -0.433 0 255 0 90 
3.451 1.23 -0.435 0 255 21 85 
3.457 1.226 -0.437 0 255 170 50 
3.456 1.22 -0.438 0 221 255 26 
3.455 1.214 -0.439 0 212 255 25 
3.46 1.209 -0.441 0 195 255 23 
3.462 1.204 -0.443 0 204 255 24 
3.464 1.199 -0.444 0 204 255 24 
3.469 1.195 -0.446 0 195 255 23 
3.471 1.189 -0.447 0 195 255 23 
3.473 1.185 -0.449 0 187 255 22 
3.477 1.18 -0.45 0 178 255 21 
3.476 1.174 -0.451 0 161 255 19 
3.48 1.169 -0.453 0 153 255 18 
3.482 1.165 -0.454 0 144 255 17 
3.488 1.161 -0.455 0 136 255 16 
3.484 1.154 -0.456 0 144 255 17 
3.496 1.152 -0.458 0 153 255 18 
3.495 1.146 -0.459 0 153 255 18 
3.493 1.14 -0.459 0 212 255 25 
3.5 1.136 -0.46 0 255 153 54 
3.499 1.131 -0.461 0 255 0 90 
3.499 1.125 -0.462 0 255 8 88 
3.501 1.12 -0.463 0 255 8 88 
3.503 1.115 -0.464 0 255 8 88 
3.508 1.111 -0.465 0 255 17 86 
3.508 1.106 -0.466 0 255 21 85 
3.512 1.102 -0.467 0 255 21 85 
3.521 1.1 -0.468 34 255 0 98 
3.525 1.096 -0.47 17 255 0 94 
3.528 1.091 -0.47 0 255 8 88 
3.529 1.087 -0.471 0 255 21 85 
3.531 1.082 -0.472 0 255 21 85 
3.53 1.076 -0.472 0 255 21 85 
3.54 1.074 -0.474 4 255 0 91 
3.535 1.068 -0.473 0 255 21 85 
3.545 1.066 -0.475 4 255 0 91 
3.54 1.059 -0.475 0 255 8 88 
3.541 1.055 -0.475 4 255 0 91 
3.546 1.051 -0.476 0 255 97 67 
3.553 1.048 -0.477 0 212 255 25 
3.534 1.038 -0.474 0 8 255 1 
3.235 1.557 -0.753 0 255 148 55 
3.225 1.555 -0.745 0 255 29 83 
3.23 1.559 -0.741 25 255 0 96 
3.231 1.561 -0.735 0 255 0 90 
3.23 1.563 -0.729 4 255 0 91 
3.234 1.567 -0.724 12 255 0 93 
3.229 1.567 -0.717 12 255 0 93 
3.23 1.57 -0.711 12 255 0 93 
3.23 1.572 -0.705 0 255 0 90 
3.233 1.575 -0.701 0 255 0 90 
3.231 1.577 -0.694 12 255 0 93 
3.233 1.579 -0.689 25 255 0 96 
3.235 1.583 -0.683 12 255 0 93 
3.232 1.585 -0.677 25 255 0 96 
3.231 1.587 -0.67 12 255 0 93 
3.231 1.589 -0.664 12 255 0 93 
3.227 1.589 -0.658 0 255 34 82 
3.227 1.593 -0.651 0 255 21 85 
3.221 1.592 -0.644 0 255 46 79 
3.226 1.597 -0.639 0 255 42 80 
3.228 1.6 -0.633 0 255 29 83 
3.23 1.604 -0.627 4 255 0 91 
3.231 1.607 -0.622 12 255 0 93 
3.229 1.609 -0.615 4 255 0 91 
3.229 1.611 -0.609 4 255 0 91 
3.227 1.614 -0.602 12 255 0 93 
3.232 1.619 -0.597 25 255 0 96 
3.226 1.619 -0.59 17 255 0 94 
3.227 1.622 -0.584 12 255 0 93 
3.226 1.625 -0.577 25 255 0 96 
3.225 1.627 -0.571 34 255 0 98 
3.229 1.633 -0.565 42 255 0 100 
3.222 1.632 -0.558 34 255 0 98 
3.223 1.635 -0.552 0 255 8 88 
3.221 1.638 -0.545 0 255 29 83 
3.214 1.637 -0.538 0 255 29 83 
3.21 1.638 -0.531 0 255 34 82 
3.21 1.642 -0.524 0 255 46 79 
3.211 1.646 -0.518 0 255 17 86 
3.215 1.651 -0.513 0 255 21 85 
3.206 1.65 -0.505 0 255 38 81 
3.203 1.652 -0.498 0 255 25 84 
3.205 1.655 -0.492 0 255 34 82 
3.205 1.659 -0.486 0 255 38 81 
3.208 1.664 -0.48 0 255 17 86 
3.21 1.669 -0.474 0 255 29 83 
3.205 1.669 -0.467 0 255 34 82 
3.206 1.674 -0.461 0 255 29 83 
3.211 1.679 -0.456 0 255 17 86 
3.206 1.681 -0.449 4 255 0 91 
3.207 1.685 -0.442 0 255 4 89 
3.209 1.69 -0.436 0 255 29 83 
3.204 1.69 -0.429 0 255 34 82 
3.203 1.693 -0.422 0 255 21 85 
3.204 1.697 -0.416 0 255 29 83 
3.205 1.701 -0.41 0 255 38 81 
3.204 1.705 -0.403 0 255 38 81 
3.198 1.706 -0.396 0 255 63 75 
3.2 1.71 -0.39 0 255 51 78 
3.2 1.715 -0.383 0 255 46 79 
3.197 1.716 -0.377 0 255 34 82 
3.199 1.721 -0.37 0 255 46 79 
3.198 1.726 -0.364 0 255 38 81 
3.196 1.728 -0.357 0 255 55 77 
3.196 1.731 -0.351 0 255 93 68 
3.195 1.736 -0.344 0 255 93 68 
3.196 1.74 -0.338 0 255 72 73 
3.2 1.745 -0.331 0 255 42 80 
3.203 1.752 -0.325 34 255 0 98 
3.202 1.755 -0.319 42 255 0 100 
3.201 1.759 -0.312 34 255 0 98 
3.198 1.762 -0.305 17 255 0 94 
3.201 1.767 -0.3 0 255 38 81 
3.255 1.719 -0.125 0 59 255 7 
3.252 1.709 -0.127 0 76 255 9 
3.253 1.702 -0.128 0 93 255 11 
3.263 1.698 -0.131 0 110 255 13 
3.263 1.689 -0.132 0 127 255 15 
3.266 1.683 -0.134 0 144 255 17 
3.269 1.675 -0.136 0 178 255 21 
3.274 1.67 -0.137 0 255 225 37 
3.28 1.664 -0.139 0 255 144 56 
3.278 1.655 -0.14 0 255 123 61 
3.286 1.65 -0.141 0 255 89 69 
3.29 1.645 -0.143 0 255 89 69 
3.289 1.635 -0.144 0 255 68 74 
3.299 1.632 -0.146 0 255 51 78 
3.301 1.624 -0.148 0 255 34 82 
3.304 1.617 -0.149 0 255 34 82 
3.298 1.607 -0.15 0 255 34 82 
3.304 1.601 -0.152 0 255 17 86 
3.308 1.596 -0.153 0 255 12 87 
3.309 1.587 -0.155 0 255 17 86 
3.314 1.582 -0.156 0 255 72 73 
3.315 1.574 -0.157 0 255 191 45 
3.321 1.569 -0.159 0 255 208 41 
3.322 1.561 -0.16 0 255 225 37 
3.325 1.555 -0.161 0 255 225 37 
3.327 1.548 -0.162 0 255 225 37 
3.331 1.541 -0.163 0 255 225 37 
3.333 1.534 -0.164 0 255 225 37 
3.336 1.527 -0.165 0 255 225 37 
3.339 1.521 -0.166 0 255 225 37 
3.341 1.514 -0.168 0 255 225 37 
3.344 1.508 -0.169 0 255 225 37 
3.345 1.5 -0.17 0 255 233 35 
3.351 1.495 -0.171 0 255 238 34 
3.357 1.49 -0.172 0 255 157 53 
3.363 1.484 -0.174 0 255 21 85 
3.366 1.478 -0.175 0 255 21 85 
3.371 1.471 -0.176 0 255 8 88 
3.373 1.466 -0.177 0 255 8 88 
3.38 1.461 -0.178 0 255 21 85 
3.383 1.454 -0.179 0 255 21 85 
3.386 1.447 -0.18 0 255 21 85 
3.383 1.439 -0.179 0 255 8 88 
3.386 1.433 -0.18 0 255 8 88 
3.394 1.428 -0.181 0 255 21 85 
3.391 1.42 -0.182 0 255 8 88 
3.394 1.413 -0.183 0 255 8 88 
3.401 1.408 -0.184 0 255 21 85 
3.407 1.403 -0.185 0 255 97 67 
3.404 1.394 -0.185 0 255 255 30 
3.41 1.389 -0.186 0 212 255 25 
3.41 1.382 -0.186 0 195 255 23 
3.415 1.377 -0.187 0 187 255 22 
3.415 1.369 -0.188 0 178 255 21 
3.423 1.364 -0.189 0 170 255 20 
3.417 1.355 -0.189 0 153 255 18 
3.423 1.35 -0.19 0 144 255 17 
3.431 1.345 -0.19 0 136 255 16 
3.433 1.34 -0.19 0 136 255 16 
3.434 1.332 -0.19 0 144 255 17 
3.437 1.327 -0.191 0 136 255 16 
3.443 1.321 -0.191 0 136 255 16 
3.446 1.316 -0.192 0 127 255 15 
3.457 1.312 -0.193 0 255 242 33 
3.461 1.307 -0.193 0 255 140 57 
3.466 1.302 -0.194 0 255 170 50 
3.461 1.292 -0.194 0 255 106 65 
3.466 1.287 -0.194 0 255 97 67 
3.47 1.283 -0.194 0 255 34 82 
3.473 1.276 -0.195 0 255 34 82 
3.47 1.269 -0.195 0 255 17 86 
3.477 1.264 -0.195 0 255 34 82 
3.482 1.259 -0.195 0 255 8 88 
3.482 1.252 -0.195 0 255 38 81 
3.487 1.247 -0.196 0 255 59 76 
3.49 1.242 -0.196 0 255 59 76 
3.498 1.237 -0.196 0 255 123 61 
3.49 1.228 -0.195 0 255 170 50 
3.504 1.226 -0.195 0 255 170 50 
3.504 1.219 -0.195 0 187 255 22 
3.498 1.211 -0.195 0 76 255 9 
3.504 1.206 -0.195 0 68 255 8 
3.506 1.2 -0.195 0 59 255 7 
3.509 1.195 -0.195 0 59 255 7 
3.51 1.189 -0.195 0 51 255 6 
3.514 1.184 -0.195 0 42 255 5 
3.518 1.179 -0.195 0 34 255 4 
3.511 1.171 -0.194 0 25 255 3 
3.531 1.171 -0.195 0 17 255 2 
3.519 1.161 -0.194 0 8 255 1 
3.157 1.772 -0.476 0 8 255 1 
3.159 1.771 -0.483 0 255 21 85 
3.141 1.758 -0.487 255 247 0 152 
3.115 1.742 -0.49 255 247 0 152 
3.112 1.738 -0.496 255 247 0 152 
3.121 1.74 -0.504 255 247 0 152 
3.15 1.751 -0.515 255 250 0 151 
3.156 1.752 -0.523 255 252 0 150 
3.157 1.75 -0.53 93 255 0 112 
3.16 1.748 -0.537 0 255 51 78 
3.157 1.744 -0.543 0 255 63 75 
3.16 1.742 -0.55 0 255 51 78 
3.158 1.739 -0.556 0 255 38 81 
3.159 1.735 -0.562 0 255 38 81 
3.159 1.733 -0.569 0 255 38 81 
3.16 1.73 -0.575 0 255 34 82 
3.162 1.729 -0.582 0 255 51 78 
3.162 1.725 -0.588 0 255 51 78 
3.162 1.722 -0.594 0 255 51 78 
3.163 1.72 -0.601 0 255 55 77 
3.161 1.715 -0.607 0 255 63 75 
3.161 1.713 -0.613 0 255 63 75 
3.162 1.71 -0.619 0 255 68 74 
3.165 1.708 -0.626 0 255 51 78 
3.167 1.706 -0.632 0 255 17 86 
3.17 1.705 -0.639 46 255 0 101 
3.169 1.701 -0.645 93 255 0 112 
3.17 1.698 -0.651 106 255 0 115 
3.168 1.695 -0.657 93 255 0 112 
3.172 1.693 -0.663 76 255 0 108 
3.173 1.691 -0.67 38 255 0 99 
3.175 1.688 -0.676 0 255 17 86 
3.175 1.686 -0.682 0 255 42 80 
3.167 1.678 -0.685 0 255 51 78 
3.168 1.676 -0.691 0 255 55 77 
3.169 1.673 -0.697 0 255 93 68 
3.173 1.672 -0.703 0 255 131 59 
3.175 1.669 -0.709 0 255 144 56 
3.174 1.666 -0.715 0 255 174 49 
3.179 1.665 -0.721 0 255 178 48 
3.178 1.661 -0.727 0 255 178 48 
3.182 1.659 -0.733 0 255 216 39 
3.184 1.657 -0.739 0 178 255 21 
3.181 1.653 -0.744 0 76 255 9 
3.366 1.293 -0.783 0 153 255 18 
3.363 1.295 -0.778 0 204 255 24 
3.362 1.297 -0.774 0 204 255 24 
3.367 1.301 -0.77 0 212 255 25 
3.365 1.303 -0.765 0 221 255 26 
3.364 1.304 -0.761 0 204 255 24 
3.364 1.307 -0.756 0 204 255 24 
3.364 1.31 -0.751 0 204 255 24 
3.36 1.312 -0.746 0 229 255 27 
3.359 1.313 -0.741 0 255 255 30 
3.357 1.316 -0.736 0 246 255 29 
3.36 1.32 -0.732 0 255 242 33 
3.36 1.323 -0.728 0 255 216 39 
3.353 1.323 -0.722 0 255 174 49 
3.361 1.329 -0.719 0 255 85 70 
3.356 1.33 -0.713 0 255 34 82 
3.347 1.33 -0.707 0 255 4 89 
3.345 1.332 -0.701 4 255 0 91 
3.353 1.338 -0.698 29 255 0 97 
3.361 1.344 -0.695 0 255 8 88 
3.356 1.345 -0.69 0 255 21 85 
3.356 1.349 -0.685 0 255 59 76 
3.346 1.348 -0.678 0 255 136 58 
3.341 1.35 -0.673 0 255 195 44 
3.348 1.356 -0.669 0 255 216 39 
3.348 1.36 -0.664 0 255 216 39 
3.349 1.363 -0.661 0 255 212 40 
3.341 1.364 -0.654 0 255 195 44 
3.346 1.369 -0.651 0 255 187 46 
3.331 1.367 -0.643 0 255 195 44 
3.339 1.373 -0.64 0 255 195 44 
3.338 1.376 -0.635 0 255 195 44 
3.339 1.381 -0.63 0 255 191 45 
3.336 1.383 -0.625 0 255 182 47 
3.334 1.387 -0.62 0 255 182 47 
3.332 1.389 -0.614 0 255 182 47 
3.333 1.393 -0.61 0 255 178 48 
3.332 1.397 -0.605 0 255 178 48 
3.332 1.401 -0.6 0 255 178 48 
3.328 1.403 -0.594 0 255 165 51 
3.327 1.407 -0.589 0 255 140 57 
3.333 1.413 -0.585 0 255 68 74 
3.332 1.417 -0.58 0 255 46 79 
3.332 1.421 -0.575 0 255 63 75 
3.327 1.423 -0.569 0 255 106 65 
