ply
format ascii 1.0
comment Created by CloudCompare v2.11.3 (Anoia)
comment Created 2021/4/5 13:28
obj_info Generated by CloudCompare!
element vertex 1443
property float x
property float y
property float z
property uchar red
property uchar green
property uchar blue
property float scalar_intensity
end_header
3.783 -2.36 -0.405 0 8 255 1 
3.87 -2.279 -0.363 0 178 255 21 
3.86 -2.272 -0.371 0 255 233 35 
3.854 -2.268 -0.379 0 255 225 37 
3.859 -2.268 -0.388 0 255 216 39 
3.858 -2.266 -0.397 0 255 204 42 
3.857 -2.265 -0.406 0 255 182 47 
3.857 -2.263 -0.415 0 255 165 51 
3.856 -2.261 -0.424 0 255 170 50 
3.848 -2.256 -0.432 0 255 161 52 
3.852 -2.257 -0.441 0 255 148 55 
3.851 -2.255 -0.45 0 255 153 54 
3.851 -2.254 -0.459 0 255 89 69 
3.857 -2.257 -0.468 0 255 21 85 
3.854 -2.254 -0.477 38 255 0 99 
3.858 -2.255 -0.486 25 255 0 96 
3.857 -2.253 -0.495 17 255 0 94 
3.854 -2.251 -0.503 17 255 0 94 
3.856 -2.251 -0.512 34 255 0 98 
3.856 -2.25 -0.521 34 255 0 98 
3.855 -2.248 -0.529 17 255 0 94 
3.853 -2.246 -0.538 25 255 0 96 
3.851 -2.244 -0.546 17 255 0 94 
3.849 -2.242 -0.555 0 255 4 89 
3.839 -2.236 -0.562 0 255 85 70 
3.837 -2.234 -0.57 0 255 119 62 
3.833 -2.23 -0.579 0 255 136 58 
3.836 -2.233 -0.588 0 255 119 62 
3.831 -2.229 -0.596 0 255 136 58 
3.83 -2.227 -0.604 0 255 136 58 
3.832 -2.228 -0.613 0 255 127 60 
3.833 -2.228 -0.622 0 255 119 62 
3.83 -2.226 -0.63 0 255 123 61 
3.827 -2.223 -0.637 0 255 136 58 
3.825 -2.222 -0.646 0 255 131 59 
3.83 -2.224 -0.655 0 255 119 62 
3.83 -2.224 -0.663 0 255 93 68 
3.835 -2.226 -0.672 0 255 21 85 
3.833 -2.225 -0.68 25 255 0 96 
3.835 -2.225 -0.689 38 255 0 99 
3.837 -2.227 -0.698 17 255 0 94 
3.83 -2.223 -0.705 25 255 0 96 
3.829 -2.221 -0.712 0 255 17 86 
3.823 -2.218 -0.72 4 255 0 91 
3.823 -2.218 -0.728 4 255 0 91 
3.832 -2.222 -0.738 17 255 0 94 
3.832 -2.222 -0.746 25 255 0 96 
3.827 -2.219 -0.753 55 255 0 103 
3.818 -2.214 -0.759 0 255 12 87 
3.817 -2.214 -0.767 0 255 85 70 
3.817 -2.214 -0.775 0 255 140 57 
3.813 -2.212 -0.782 0 255 148 55 
3.812 -2.211 -0.79 0 255 148 55 
3.811 -2.211 -0.798 0 255 161 52 
3.809 -2.21 -0.805 0 255 148 55 
3.81 -2.211 -0.813 0 255 157 53 
3.807 -2.209 -0.821 0 255 161 52 
3.807 -2.209 -0.829 0 255 157 53 
3.803 -2.208 -0.835 0 255 153 54 
3.803 -2.208 -0.843 0 255 161 52 
3.804 -2.209 -0.851 0 255 161 52 
3.807 -2.211 -0.859 0 255 148 55 
3.801 -2.207 -0.866 0 255 102 66 
3.805 -2.211 -0.874 0 255 59 76 
3.806 -2.211 -0.882 0 255 4 89 
3.806 -2.212 -0.89 0 255 17 86 
3.806 -2.211 -0.897 12 255 0 93 
3.801 -2.21 -0.903 0 255 4 89 
3.8 -2.21 -0.91 0 255 4 89 
3.802 -2.212 -0.919 17 255 0 94 
3.799 -2.211 -0.925 12 255 0 93 
3.797 -2.211 -0.932 12 255 0 93 
3.796 -2.21 -0.939 12 255 0 93 
3.8 -2.212 -0.947 0 255 0 90 
3.794 -2.21 -0.953 0 255 21 85 
3.792 -2.21 -0.96 0 255 131 59 
4.193 -1.691 -0.718 0 59 255 7 
4.189 -1.696 -0.714 0 76 255 9 
4.188 -1.702 -0.71 0 76 255 9 
4.184 -1.706 -0.706 0 85 255 10 
4.183 -1.713 -0.702 0 85 255 10 
4.178 -1.717 -0.698 0 93 255 11 
4.175 -1.722 -0.694 0 102 255 12 
4.168 -1.726 -0.689 0 102 255 12 
4.168 -1.732 -0.685 0 102 255 12 
4.162 -1.736 -0.68 0 102 255 12 
4.166 -1.744 -0.677 0 93 255 11 
4.161 -1.748 -0.673 0 93 255 11 
4.158 -1.753 -0.668 0 102 255 12 
4.154 -1.759 -0.663 0 110 255 13 
4.155 -1.765 -0.66 0 144 255 17 
4.144 -1.768 -0.653 0 255 204 42 
4.139 -1.772 -0.648 0 255 46 79 
4.134 -1.777 -0.643 0 255 17 86 
4.132 -1.783 -0.639 0 255 17 86 
4.133 -1.789 -0.635 0 255 34 82 
4.131 -1.795 -0.63 0 255 55 77 
4.125 -1.799 -0.625 0 255 114 63 
4.128 -1.807 -0.621 0 255 174 49 
4.124 -1.811 -0.616 0 255 233 35 
4.12 -1.817 -0.611 0 221 255 26 
4.115 -1.821 -0.606 0 161 255 19 
4.114 -1.827 -0.601 0 144 255 17 
4.11 -1.832 -0.596 0 144 255 17 
4.11 -1.839 -0.591 0 144 255 17 
4.106 -1.843 -0.586 0 144 255 17 
4.103 -1.849 -0.58 0 255 255 30 
4.097 -1.853 -0.575 0 255 110 64 
4.1 -1.861 -0.571 0 255 4 89 
4.098 -1.867 -0.565 0 255 4 89 
4.09 -1.871 -0.56 21 255 0 95 
4.09 -1.877 -0.555 12 255 0 93 
4.088 -1.883 -0.549 12 255 0 93 
4.078 -1.886 -0.543 0 255 17 86 
4.076 -1.891 -0.538 0 255 17 86 
4.074 -1.898 -0.533 0 255 17 86 
4.076 -1.905 -0.527 12 255 0 93 
4.07 -1.909 -0.521 0 255 17 86 
4.07 -1.916 -0.516 0 255 21 85 
4.069 -1.922 -0.51 0 255 85 70 
4.067 -1.928 -0.505 0 255 148 55 
4.055 -1.929 -0.498 0 255 195 44 
4.058 -1.938 -0.493 0 255 131 59 
4.054 -1.942 -0.487 0 255 4 89 
4.052 -1.949 -0.482 0 255 4 89 
4.05 -1.955 -0.476 4 255 0 91 
4.046 -1.959 -0.47 0 255 8 88 
4.047 -1.967 -0.463 4 255 0 91 
4.044 -1.973 -0.458 4 255 0 91 
4.041 -1.978 -0.452 0 255 4 89 
4.037 -1.982 -0.445 0 255 4 89 
4.038 -1.99 -0.44 4 255 0 91 
4.034 -1.996 -0.434 4 255 0 91 
4.032 -2.001 -0.428 4 255 0 91 
4.029 -2.007 -0.422 4 255 0 91 
4.026 -2.012 -0.416 0 255 4 89 
4.024 -2.018 -0.41 0 255 102 66 
4.029 -2.027 -0.404 0 221 255 26 
4.027 -2.033 -0.398 0 85 255 10 
4.142 -1.855 -0.413 0 136 255 16 
4.149 -1.852 -0.419 0 255 191 45 
4.141 -1.841 -0.424 0 255 93 68 
4.141 -1.835 -0.429 0 255 46 79 
4.141 -1.829 -0.436 0 255 25 84 
4.144 -1.824 -0.442 0 255 34 82 
4.145 -1.817 -0.447 0 255 25 84 
4.148 -1.813 -0.453 0 255 34 82 
4.152 -1.808 -0.459 0 255 21 85 
4.155 -1.803 -0.465 0 255 8 88 
4.157 -1.798 -0.471 0 255 17 86 
4.16 -1.793 -0.477 0 255 21 85 
4.159 -1.787 -0.482 0 255 21 85 
4.163 -1.782 -0.488 0 255 21 85 
4.164 -1.777 -0.494 0 255 21 85 
4.167 -1.772 -0.5 0 255 89 69 
4.18 -1.772 -0.507 0 255 238 34 
4.177 -1.764 -0.513 0 119 255 14 
4.179 -1.76 -0.519 0 144 255 17 
4.174 -1.753 -0.524 0 255 250 31 
4.191 -1.753 -0.531 0 255 161 52 
4.179 -1.743 -0.535 0 255 80 71 
4.185 -1.739 -0.541 0 255 38 81 
4.184 -1.734 -0.547 0 255 29 83 
4.188 -1.73 -0.553 0 255 25 84 
4.189 -1.724 -0.558 0 255 25 84 
4.192 -1.721 -0.564 0 255 25 84 
4.193 -1.715 -0.57 0 255 25 84 
4.192 -1.71 -0.575 0 255 25 84 
4.195 -1.706 -0.581 0 255 25 84 
4.196 -1.701 -0.586 0 255 25 84 
4.202 -1.698 -0.593 0 255 8 88 
4.197 -1.692 -0.598 0 255 34 82 
4.205 -1.689 -0.605 0 255 127 60 
4.207 -1.685 -0.61 0 221 255 26 
4.192 -1.675 -0.614 0 17 255 2 
4.048 -1.82 -1.007 0 102 255 12 
4.048 -1.824 -1.003 0 110 255 13 
4.041 -1.826 -0.997 0 119 255 14 
4.038 -1.83 -0.993 0 119 255 14 
4.037 -1.834 -0.987 0 119 255 14 
4.034 -1.836 -0.983 0 127 255 15 
4.031 -1.841 -0.978 0 127 255 15 
4.034 -1.847 -0.974 0 127 255 15 
4.031 -1.85 -0.969 0 161 255 19 
4.031 -1.854 -0.965 0 255 242 33 
4.03 -1.859 -0.961 0 255 131 59 
4.016 -1.857 -0.953 0 255 68 74 
4.028 -1.867 -0.951 0 255 42 80 
4.017 -1.868 -0.944 0 255 46 79 
4.018 -1.873 -0.94 0 255 46 79 
4.012 -1.874 -0.934 0 255 63 75 
4.013 -1.88 -0.929 0 255 34 82 
4.011 -1.884 -0.924 0 255 46 79 
4.014 -1.89 -0.92 0 255 85 70 
4.012 -1.893 -0.915 0 255 114 63 
4.007 -1.896 -0.909 0 255 182 47 
4.009 -1.902 -0.904 0 255 238 34 
4.003 -1.904 -0.897 0 204 255 24 
4.002 -1.908 -0.892 0 178 255 21 
3.997 -1.911 -0.886 0 170 255 20 
3.996 -1.915 -0.881 0 170 255 20 
3.998 -1.921 -0.876 0 187 255 22 
4 -1.926 -0.871 0 187 255 22 
3.99 -1.926 -0.864 0 178 255 21 
3.992 -1.932 -0.859 0 204 255 24 
3.99 -1.936 -0.853 0 255 216 39 
3.993 -1.942 -0.848 0 255 114 63 
3.987 -1.944 -0.842 0 255 29 83 
3.989 -1.949 -0.837 0 255 21 85 
3.987 -1.954 -0.831 0 255 21 85 
3.984 -1.957 -0.824 0 255 25 84 
3.983 -1.962 -0.819 0 255 29 83 
3.983 -1.966 -0.812 0 255 29 83 
3.979 -1.969 -0.806 0 255 85 70 
3.977 -1.973 -0.799 0 255 148 55 
3.972 -1.975 -0.793 0 255 212 40 
3.974 -1.98 -0.787 0 238 255 28 
3.97 -1.983 -0.78 0 229 255 27 
3.973 -1.99 -0.775 0 229 255 27 
3.968 -1.992 -0.768 0 229 255 27 
3.966 -1.996 -0.761 0 246 255 29 
3.965 -2 -0.755 0 246 255 29 
3.965 -2.005 -0.749 0 246 255 29 
3.967 -2.01 -0.743 0 255 250 31 
3.956 -2.01 -0.735 0 255 246 32 
3.96 -2.016 -0.729 0 255 225 37 
3.957 -2.02 -0.723 0 255 174 49 
3.958 -2.025 -0.716 0 255 85 70 
3.954 -2.028 -0.709 0 255 21 85 
3.953 -2.033 -0.702 0 255 21 85 
3.959 -2.039 -0.696 0 255 72 73 
3.951 -2.041 -0.688 0 255 148 55 
3.947 -2.044 -0.681 0 255 208 41 
3.946 -2.048 -0.674 0 255 225 37 
3.941 -2.049 -0.666 0 255 238 34 
3.945 -2.056 -0.661 0 255 225 37 
3.94 -2.059 -0.653 0 255 225 37 
3.942 -2.065 -0.646 0 255 225 37 
3.938 -2.067 -0.639 0 255 216 39 
3.934 -2.069 -0.631 0 255 216 39 
3.942 -2.078 -0.626 0 255 221 38 
3.932 -2.078 -0.617 0 255 216 39 
3.932 -2.083 -0.61 0 255 212 40 
3.928 -2.085 -0.603 0 255 204 42 
3.93 -2.09 -0.596 0 255 204 42 
3.926 -2.093 -0.588 0 255 182 47 
3.929 -2.099 -0.582 0 255 123 61 
3.929 -2.103 -0.574 0 255 119 62 
3.923 -2.106 -0.565 0 255 165 51 
3.928 -2.112 -0.559 0 255 208 41 
3.923 -2.115 -0.551 0 255 199 43 
3.922 -2.119 -0.544 0 255 199 43 
3.921 -2.123 -0.536 0 255 199 43 
3.918 -2.125 -0.528 0 255 199 43 
3.919 -2.13 -0.521 0 255 195 44 
3.914 -2.132 -0.513 0 255 195 44 
3.916 -2.137 -0.505 0 255 187 46 
3.916 -2.142 -0.498 0 255 195 44 
3.915 -2.146 -0.49 0 255 195 44 
3.911 -2.149 -0.482 0 255 165 51 
3.919 -2.157 -0.475 0 255 110 64 
3.913 -2.159 -0.467 0 255 34 82 
3.922 -2.168 -0.459 42 255 0 100 
3.921 -2.171 -0.452 42 255 0 100 
3.917 -2.174 -0.443 29 255 0 97 
3.918 -2.178 -0.436 51 255 0 102 
3.918 -2.183 -0.428 42 255 0 100 
3.917 -2.186 -0.42 42 255 0 100 
3.911 -2.188 -0.411 0 255 21 85 
3.913 -2.193 -0.403 0 255 123 61 
3.904 -2.192 -0.394 0 255 195 44 
3.908 -2.199 -0.387 0 255 225 37 
3.903 -2.201 -0.378 0 255 255 30 
3.915 -2.211 -0.371 0 136 255 16 
3.989 -2.081 -0.389 0 42 255 5 
3.994 -2.073 -0.404 0 144 255 17 
3.994 -2.068 -0.411 0 178 255 21 
3.995 -2.063 -0.418 0 195 255 23 
3.992 -2.057 -0.426 0 195 255 23 
3.995 -2.053 -0.433 0 187 255 22 
3.999 -2.05 -0.441 0 212 255 25 
4 -2.046 -0.448 0 229 255 27 
4.001 -2.042 -0.456 0 229 255 27 
4 -2.035 -0.463 0 238 255 28 
4.005 -2.034 -0.471 0 246 255 29 
4.005 -2.028 -0.479 0 255 225 37 
4.002 -2.022 -0.486 0 255 153 54 
4.002 -2.017 -0.493 0 255 174 49 
4.004 -2.014 -0.501 0 255 233 35 
4.012 -2.013 -0.509 0 246 255 29 
4.013 -2.009 -0.516 0 246 255 29 
4.007 -2.001 -0.523 0 238 255 28 
4.014 -2.001 -0.531 0 246 255 29 
4.01 -1.994 -0.537 0 238 255 28 
4.016 -1.993 -0.546 0 246 255 29 
4.017 -1.989 -0.553 0 246 255 29 
4.013 -1.982 -0.559 0 238 255 28 
4.014 -1.978 -0.567 0 238 255 28 
4.017 -1.975 -0.574 0 229 255 27 
4.02 -1.973 -0.582 0 221 255 26 
4.021 -1.969 -0.589 0 246 255 29 
4.022 -1.965 -0.597 0 255 187 46 
4.027 -1.963 -0.605 0 255 51 78 
4.022 -1.957 -0.611 0 255 25 84 
4.028 -1.956 -0.619 4 255 0 91 
4.027 -1.952 -0.626 0 255 4 89 
4.025 -1.946 -0.633 0 255 17 86 
4.025 -1.943 -0.64 0 255 29 83 
4.026 -1.939 -0.647 0 255 157 53 
4.032 -1.938 -0.655 0 255 229 36 
4.029 -1.933 -0.661 0 212 255 25 
4.033 -1.932 -0.669 0 212 255 25 
4.028 -1.925 -0.675 0 204 255 24 
4.033 -1.924 -0.683 0 212 255 25 
4.034 -1.921 -0.69 0 212 255 25 
4.036 -1.918 -0.697 0 238 255 28 
4.036 -1.915 -0.704 0 255 178 48 
4.039 -1.913 -0.711 0 255 72 73 
4.034 -1.907 -0.717 0 255 8 88 
4.036 -1.904 -0.724 0 255 4 89 
4.037 -1.902 -0.731 4 255 0 91 
4.037 -1.898 -0.739 4 255 0 91 
4.038 -1.895 -0.746 4 255 0 91 
4.04 -1.893 -0.753 0 255 8 88 
4.04 -1.89 -0.76 0 255 4 89 
4.038 -1.885 -0.766 4 255 0 91 
4.049 -1.887 -0.775 21 255 0 95 
4.048 -1.884 -0.781 25 255 0 96 
4.041 -1.878 -0.787 0 255 8 88 
4.043 -1.876 -0.794 0 255 21 85 
4.044 -1.873 -0.801 0 255 21 85 
4.041 -1.869 -0.807 0 255 102 66 
4.044 -1.867 -0.814 0 255 216 39 
4.047 -1.866 -0.821 0 221 255 26 
4.049 -1.865 -0.828 0 178 255 21 
4.05 -1.862 -0.834 0 204 255 24 
4.05 -1.86 -0.841 0 255 246 32 
4.044 -1.854 -0.846 0 255 174 49 
4.048 -1.853 -0.853 0 255 102 66 
4.046 -1.85 -0.859 0 255 51 78 
4.045 -1.847 -0.866 0 255 0 90 
4.048 -1.846 -0.873 12 255 0 93 
4.052 -1.845 -0.88 0 255 4 89 
4.048 -1.841 -0.885 12 255 0 93 
4.052 -1.841 -0.892 0 255 4 89 
4.052 -1.839 -0.899 0 255 12 87 
4.052 -1.836 -0.905 0 255 12 87 
4.055 -1.835 -0.912 0 255 110 64 
4.053 -1.833 -0.918 0 255 204 42 
4.052 -1.83 -0.925 0 229 255 27 
4.056 -1.83 -0.932 0 144 255 17 
4.051 -1.826 -0.937 0 144 255 17 
4.053 -1.824 -0.943 0 144 255 17 
4.05 -1.821 -0.948 0 144 255 17 
4.05 -1.82 -0.955 0 136 255 16 
4.051 -1.818 -0.961 0 136 255 16 
4.056 -1.818 -0.968 0 136 255 16 
4.055 -1.816 -0.974 0 136 255 16 
4.052 -1.813 -0.979 0 127 255 15 
4.051 -1.812 -0.985 0 127 255 15 
4.053 -1.811 -0.991 0 127 255 15 
4.048 -1.807 -0.995 0 119 255 14 
4.048 -1.806 -1.002 0 119 255 14 
4.054 -1.807 -1.009 0 110 255 13 
3.82 -2.169 -0.967 0 153 255 18 
3.813 -2.168 -0.958 0 246 255 29 
3.814 -2.171 -0.952 0 255 246 32 
3.809 -2.172 -0.945 0 255 246 32 
3.812 -2.175 -0.939 0 255 242 33 
3.815 -2.179 -0.933 0 255 238 34 
3.812 -2.181 -0.926 0 255 225 37 
3.812 -2.183 -0.919 0 255 208 41 
3.813 -2.187 -0.913 0 255 204 42 
3.81 -2.188 -0.905 0 255 191 45 
3.807 -2.188 -0.898 0 255 165 51 
3.816 -2.195 -0.893 0 255 131 59 
3.808 -2.194 -0.884 0 255 102 66 
3.812 -2.199 -0.878 0 255 85 70 
3.815 -2.203 -0.872 0 255 127 60 
3.813 -2.204 -0.864 0 255 157 53 
3.804 -2.202 -0.855 0 255 174 49 
3.803 -2.203 -0.848 0 255 174 49 
3.804 -2.207 -0.841 0 255 170 50 
3.804 -2.209 -0.834 0 255 170 50 
3.807 -2.212 -0.827 0 255 165 51 
3.804 -2.213 -0.819 0 255 165 51 
3.805 -2.217 -0.812 0 255 170 50 
3.804 -2.219 -0.804 0 255 165 51 
3.805 -2.221 -0.797 0 255 165 51 
3.805 -2.223 -0.79 0 255 165 51 
3.806 -2.226 -0.782 0 255 161 52 
3.808 -2.23 -0.775 0 255 157 53 
3.804 -2.23 -0.767 0 255 114 63 
3.81 -2.235 -0.759 0 255 76 72 
3.811 -2.238 -0.752 0 255 29 83 
3.811 -2.24 -0.744 0 255 17 86 
3.813 -2.243 -0.736 55 255 0 103 
3.814 -2.245 -0.729 59 255 0 104 
3.813 -2.247 -0.721 55 255 0 103 
3.818 -2.252 -0.714 0 255 4 89 
3.814 -2.252 -0.706 0 255 21 85 
3.812 -2.253 -0.697 0 255 17 86 
3.813 -2.255 -0.689 0 255 17 86 
3.813 -2.258 -0.681 0 255 17 86 
3.815 -2.26 -0.674 0 255 21 85 
3.81 -2.259 -0.665 0 255 80 71 
3.809 -2.261 -0.656 0 255 119 62 
3.804 -2.26 -0.647 0 255 136 58 
3.803 -2.26 -0.639 0 255 136 58 
3.808 -2.266 -0.631 0 255 127 60 
3.805 -2.266 -0.623 0 255 136 58 
3.805 -2.267 -0.614 0 255 131 59 
3.803 -2.268 -0.606 0 255 123 61 
3.812 -2.275 -0.599 0 255 93 68 
3.812 -2.276 -0.591 0 255 80 71 
3.812 -2.278 -0.582 0 255 46 79 
3.812 -2.28 -0.574 0 255 46 79 
3.819 -2.286 -0.566 0 255 55 77 
3.814 -2.284 -0.557 0 255 85 70 
3.808 -2.283 -0.548 0 255 136 58 
3.81 -2.285 -0.539 0 255 123 61 
3.807 -2.286 -0.53 0 255 131 59 
3.808 -2.287 -0.522 0 255 131 59 
3.811 -2.291 -0.514 0 255 127 60 
3.809 -2.291 -0.505 0 255 136 58 
3.818 -2.297 -0.497 0 255 136 58 
3.816 -2.298 -0.488 0 255 157 53 
3.817 -2.3 -0.479 0 255 161 52 
3.817 -2.3 -0.471 0 255 157 53 
3.814 -2.301 -0.461 0 255 119 62 
3.819 -2.305 -0.452 0 255 63 75 
3.828 -2.311 -0.444 12 255 0 93 
3.83 -2.313 -0.436 17 255 0 94 
3.828 -2.314 -0.427 25 255 0 96 
3.83 -2.317 -0.418 17 255 0 94 
3.83 -2.318 -0.409 17 255 0 94 
3.826 -2.316 -0.4 46 255 0 101 
3.833 -2.32 -0.391 25 255 0 96 
3.832 -2.321 -0.382 25 255 0 96 
3.83 -2.32 -0.373 25 255 0 96 
3.829 -2.322 -0.364 0 255 51 78 
3.843 -2.331 -0.356 0 255 221 38 
3.905 -2.232 -0.364 0 68 255 8 
3.894 -2.223 -0.372 0 204 255 24 
3.895 -2.221 -0.38 0 255 225 37 
3.893 -2.216 -0.389 0 255 208 41 
3.89 -2.212 -0.397 0 255 199 43 
3.891 -2.211 -0.406 0 255 199 43 
3.892 -2.208 -0.414 0 255 195 44 
3.892 -2.206 -0.423 0 255 195 44 
3.89 -2.203 -0.431 0 255 187 46 
3.891 -2.2 -0.44 0 255 187 46 
3.893 -2.198 -0.449 0 255 178 48 
3.893 -2.196 -0.457 0 255 144 56 
3.895 -2.195 -0.466 0 255 123 61 
3.892 -2.192 -0.474 0 255 131 59 
3.89 -2.188 -0.482 0 255 161 52 
3.887 -2.184 -0.49 0 255 174 49 
3.889 -2.182 -0.499 0 255 178 48 
3.886 -2.178 -0.507 0 255 178 48 
3.887 -2.177 -0.516 0 255 174 49 
3.887 -2.175 -0.524 0 255 174 49 
3.882 -2.17 -0.532 0 255 161 52 
3.889 -2.171 -0.541 0 255 165 51 
3.886 -2.168 -0.549 0 255 170 50 
3.885 -2.166 -0.558 0 255 170 50 
3.887 -2.164 -0.567 0 255 148 55 
3.89 -2.164 -0.576 0 255 51 78 
3.893 -2.164 -0.584 17 255 0 94 
3.894 -2.162 -0.593 25 255 0 96 
3.893 -2.16 -0.601 17 255 0 94 
3.895 -2.16 -0.61 12 255 0 93 
3.893 -2.156 -0.617 25 255 0 96 
3.893 -2.154 -0.625 25 255 0 96 
3.901 -2.156 -0.635 29 255 0 97 
3.891 -2.15 -0.642 17 255 0 94 
3.891 -2.148 -0.65 17 255 0 94 
3.892 -2.147 -0.658 25 255 0 96 
3.892 -2.146 -0.666 4 255 0 91 
3.883 -2.14 -0.673 0 255 80 71 
3.882 -2.137 -0.68 0 255 144 56 
3.878 -2.133 -0.688 0 255 161 52 
3.882 -2.134 -0.696 0 255 174 49 
3.884 -2.134 -0.705 0 255 187 46 
3.88 -2.13 -0.712 0 255 178 48 
3.879 -2.129 -0.72 0 255 178 48 
3.876 -2.126 -0.727 0 255 182 47 
3.873 -2.123 -0.734 0 255 182 47 
3.877 -2.123 -0.743 0 255 178 48 
3.878 -2.123 -0.751 0 255 187 46 
3.875 -2.12 -0.758 0 255 187 46 
3.882 -2.122 -0.767 0 255 187 46 
3.879 -2.12 -0.775 0 255 136 58 
3.882 -2.12 -0.783 0 255 63 75 
3.884 -2.12 -0.791 0 255 12 87 
3.884 -2.119 -0.799 0 255 8 88 
3.882 -2.117 -0.806 0 255 12 87 
3.88 -2.116 -0.813 0 255 34 82 
3.873 -2.111 -0.82 0 255 59 76 
3.882 -2.115 -0.829 0 255 97 67 
3.877 -2.111 -0.836 0 255 114 63 
3.874 -2.108 -0.842 0 255 131 59 
3.874 -2.108 -0.85 0 255 157 53 
3.875 -2.108 -0.858 0 255 178 48 
3.871 -2.105 -0.864 0 255 195 44 
3.871 -2.104 -0.872 0 255 195 44 
3.868 -2.102 -0.879 0 255 131 59 
3.878 -2.106 -0.888 0 255 68 74 
3.874 -2.104 -0.895 0 255 8 88 
3.874 -2.103 -0.902 0 255 8 88 
3.871 -2.102 -0.909 0 255 0 90 
3.871 -2.1 -0.915 0 255 0 90 
3.869 -2.1 -0.923 0 255 0 90 
3.868 -2.098 -0.93 4 255 0 91 
3.867 -2.097 -0.937 0 255 0 90 
3.87 -2.099 -0.945 21 255 0 95 
3.868 -2.097 -0.952 21 255 0 95 
3.866 -2.096 -0.958 0 255 12 87 
3.863 -2.094 -0.964 0 255 102 66 
3.865 -2.096 -0.972 0 255 229 36 
4.218 -1.686 -0.569 0 255 225 37 
4.207 -1.687 -0.565 0 255 46 79 
4.203 -1.693 -0.561 0 255 25 84 
4.203 -1.7 -0.557 0 255 34 82 
4.198 -1.706 -0.553 0 255 34 82 
4.196 -1.712 -0.55 0 255 34 82 
4.194 -1.718 -0.546 0 255 34 82 
4.19 -1.724 -0.542 0 255 38 81 
4.186 -1.729 -0.538 0 255 63 75 
4.187 -1.737 -0.535 0 255 97 67 
4.192 -1.747 -0.532 0 255 144 56 
4.187 -1.752 -0.528 0 255 204 42 
4.185 -1.759 -0.524 0 255 238 34 
4.175 -1.762 -0.519 0 221 255 26 
4.177 -1.77 -0.515 0 255 199 43 
4.165 -1.772 -0.509 0 255 63 75 
4.163 -1.779 -0.505 0 255 21 85 
4.159 -1.785 -0.501 0 255 17 86 
4.149 -1.788 -0.496 0 255 17 86 
4.155 -1.798 -0.493 0 255 17 86 
4.148 -1.802 -0.488 0 255 4 89 
4.142 -1.807 -0.483 0 255 12 87 
4.143 -1.815 -0.479 0 255 4 89 
4.141 -1.822 -0.475 0 255 4 89 
4.136 -1.827 -0.47 0 255 17 86 
4.133 -1.833 -0.465 0 255 12 87 
4.131 -1.84 -0.46 0 255 12 87 
4.123 -1.844 -0.456 0 255 42 80 
4.131 -1.855 -0.452 0 255 221 38 
4.127 -1.86 -0.447 0 136 255 16 
4.123 -1.867 -0.443 0 136 255 16 
4.116 -1.871 -0.437 0 136 255 16 
4.112 -1.877 -0.433 0 136 255 16 
4.111 -1.884 -0.428 0 136 255 16 
4.101 -1.888 -0.423 0 127 255 15 
4.105 -1.896 -0.418 0 127 255 15 
4.101 -1.902 -0.413 0 102 255 12 
4.103 -1.911 -0.408 0 76 255 9 
4.094 -1.914 -0.403 0 42 255 5 
3.832 -2.338 -0.355 0 255 187 46 
3.827 -2.335 -0.363 0 255 8 88 
3.829 -2.337 -0.373 51 255 0 102 
3.823 -2.334 -0.381 34 255 0 98 
3.827 -2.336 -0.391 55 255 0 103 
3.822 -2.334 -0.4 34 255 0 98 
3.821 -2.334 -0.409 34 255 0 98 
3.821 -2.334 -0.418 25 255 0 96 
3.813 -2.33 -0.426 38 255 0 99 
3.816 -2.333 -0.435 25 255 0 96 
3.807 -2.328 -0.443 0 255 17 86 
3.805 -2.327 -0.452 0 255 93 68 
3.804 -2.327 -0.461 0 255 161 52 
3.8 -2.325 -0.469 0 255 182 47 
3.8 -2.327 -0.478 0 255 187 46 
3.8 -2.327 -0.487 0 255 187 46 
3.8 -2.328 -0.496 0 255 187 46 
3.796 -2.326 -0.504 0 255 170 50 
3.793 -2.326 -0.513 0 255 174 49 
3.792 -2.325 -0.522 0 255 174 49 
3.794 -2.327 -0.531 0 255 182 47 
3.791 -2.327 -0.539 0 255 170 50 
3.789 -2.326 -0.548 0 255 119 62 
3.791 -2.328 -0.557 0 255 34 82 
3.786 -2.327 -0.565 8 255 0 92 
3.788 -2.328 -0.574 38 255 0 99 
3.789 -2.33 -0.583 55 255 0 103 
3.785 -2.329 -0.591 38 255 0 99 
3.787 -2.332 -0.6 46 255 0 101 
3.784 -2.331 -0.608 55 255 0 103 
3.775 -2.326 -0.615 21 255 0 95 
3.778 -2.329 -0.624 110 255 0 116 
3.775 -2.329 -0.632 119 255 0 118 
3.775 -2.33 -0.641 110 255 0 116 
3.769 -2.328 -0.648 0 255 4 89 
3.765 -2.327 -0.656 0 255 102 66 
3.76 -2.325 -0.664 0 255 123 61 
3.758 -2.325 -0.672 0 255 123 61 
3.757 -2.325 -0.68 0 255 123 61 
3.754 -2.325 -0.688 0 255 119 62 
3.756 -2.328 -0.697 0 255 136 58 
3.75 -2.325 -0.704 0 255 136 58 
3.75 -2.327 -0.712 0 255 131 59 
3.747 -2.326 -0.72 0 255 127 60 
3.747 -2.327 -0.728 0 255 123 61 
3.752 -2.332 -0.737 0 255 153 54 
3.743 -2.329 -0.744 0 255 136 58 
3.749 -2.334 -0.753 0 255 55 77 
3.745 -2.333 -0.76 8 255 0 92 
3.747 -2.335 -0.769 46 255 0 101 
3.747 -2.338 -0.777 59 255 0 104 
3.746 -2.338 -0.785 59 255 0 104 
3.743 -2.338 -0.792 38 255 0 99 
3.737 -2.335 -0.798 17 255 0 94 
3.734 -2.336 -0.806 21 255 0 95 
3.737 -2.339 -0.814 38 255 0 99 
3.735 -2.341 -0.822 38 255 0 99 
3.728 -2.338 -0.828 8 255 0 92 
3.729 -2.34 -0.836 8 255 0 92 
3.724 -2.339 -0.842 0 255 29 83 
3.721 -2.339 -0.85 0 255 68 74 
3.717 -2.339 -0.856 0 255 110 64 
3.711 -2.337 -0.863 0 255 127 60 
3.713 -2.34 -0.871 0 255 131 59 
3.709 -2.339 -0.877 0 255 144 56 
3.707 -2.34 -0.884 0 255 144 56 
3.71 -2.343 -0.893 0 255 170 50 
3.709 -2.345 -0.9 0 255 165 51 
3.706 -2.346 -0.907 0 255 153 54 
3.701 -2.344 -0.913 0 255 136 58 
3.703 -2.348 -0.921 0 255 148 55 
3.7 -2.349 -0.928 0 255 165 51 
3.699 -2.349 -0.934 0 255 174 49 
3.697 -2.35 -0.941 0 255 242 33 
4.191 -1.665 -0.435 0 8 255 1 
4.123 -1.671 -0.939 0 17 255 2 
4.155 -1.688 -0.944 0 127 255 15 
4.149 -1.691 -0.939 0 255 250 31 
4.146 -1.695 -0.936 0 255 233 35 
4.14 -1.698 -0.93 0 229 255 27 
4.141 -1.704 -0.927 0 153 255 18 
4.136 -1.706 -0.923 0 102 255 12 
4.137 -1.713 -0.92 0 93 255 11 
4.141 -1.72 -0.918 0 85 255 10 
4.135 -1.722 -0.913 0 93 255 11 
4.131 -1.725 -0.909 0 93 255 11 
4.134 -1.732 -0.906 0 93 255 11 
4.13 -1.736 -0.902 0 93 255 11 
4.125 -1.739 -0.897 0 93 255 11 
4.12 -1.743 -0.892 0 102 255 12 
4.118 -1.747 -0.888 0 102 255 12 
4.115 -1.751 -0.884 0 102 255 12 
4.111 -1.755 -0.879 0 102 255 12 
4.111 -1.76 -0.875 0 110 255 13 
4.11 -1.765 -0.87 0 136 255 16 
4.102 -1.768 -0.865 0 255 238 34 
4.097 -1.771 -0.86 0 255 106 65 
4.099 -1.778 -0.856 0 255 46 79 
4.091 -1.78 -0.851 0 255 29 83 
4.093 -1.786 -0.847 0 255 42 80 
4.089 -1.789 -0.842 0 255 29 83 
4.094 -1.796 -0.839 0 255 42 80 
4.087 -1.799 -0.833 0 255 29 83 
4.089 -1.806 -0.829 0 255 102 66 
4.085 -1.809 -0.824 0 255 136 58 
4.084 -1.815 -0.82 0 255 199 43 
4.085 -1.821 -0.816 0 255 250 31 
4.074 -1.821 -0.809 0 178 255 21 
4.08 -1.829 -0.805 0 144 255 17 
4.072 -1.832 -0.799 0 136 255 16 
4.074 -1.838 -0.794 0 144 255 17 
4.071 -1.842 -0.789 0 144 255 17 
4.064 -1.845 -0.783 0 153 255 18 
4.066 -1.851 -0.778 0 255 255 30 
4.055 -1.858 -0.766 0 255 29 83 
4.055 -1.864 -0.761 0 255 21 85 
4.052 -1.868 -0.756 0 255 29 83 
4.056 -1.875 -0.752 0 255 0 90 
4.05 -1.878 -0.745 0 255 17 86 
4.046 -1.881 -0.74 0 255 17 86 
4.049 -1.889 -0.735 0 255 21 85 
4.042 -1.891 -0.729 0 255 21 85 
4.038 -1.895 -0.723 0 255 34 82 
4.04 -1.902 -0.717 0 255 51 78 
4.037 -1.906 -0.711 0 255 110 64 
4.036 -1.911 -0.705 0 255 174 49 
4.042 -1.919 -0.701 0 255 238 34 
4.033 -1.92 -0.694 0 212 255 25 
4.028 -1.925 -0.688 0 195 255 23 
4.029 -1.931 -0.682 0 204 255 24 
4.026 -1.935 -0.676 0 255 216 39 
4.026 -1.94 -0.67 0 255 102 66 
4.019 -1.943 -0.664 0 255 25 84 
4.02 -1.95 -0.658 0 255 17 86 
4.019 -1.954 -0.652 0 255 17 86 
4.017 -1.959 -0.646 0 255 17 86 
4.017 -1.965 -0.64 0 255 21 85 
4.015 -1.969 -0.633 0 255 17 86 
4.011 -1.974 -0.626 0 255 4 89 
4.012 -1.979 -0.62 0 255 17 86 
4.01 -1.985 -0.614 0 255 17 86 
4.009 -1.989 -0.608 0 255 29 83 
3.999 -1.991 -0.6 0 255 76 72 
3.995 -1.994 -0.593 0 255 157 53 
3.991 -1.998 -0.586 0 255 221 38 
3.998 -2.007 -0.581 0 255 250 31 
3.996 -2.012 -0.575 0 255 255 30 
3.99 -2.014 -0.567 0 255 238 34 
3.985 -2.018 -0.56 0 255 174 49 
3.991 -2.026 -0.555 0 255 59 76 
3.988 -2.03 -0.548 21 255 0 95 
3.986 -2.036 -0.54 17 255 0 94 
3.985 -2.041 -0.534 21 255 0 95 
3.98 -2.043 -0.526 29 255 0 97 
3.98 -2.049 -0.52 21 255 0 95 
3.976 -2.052 -0.512 34 255 0 98 
3.977 -2.059 -0.506 21 255 0 95 
3.974 -2.064 -0.499 29 255 0 97 
3.976 -2.069 -0.492 0 255 55 77 
3.967 -2.071 -0.484 0 255 127 60 
3.963 -2.074 -0.477 0 255 199 43 
3.963 -2.08 -0.47 0 255 225 37 
3.964 -2.086 -0.464 0 255 225 37 
3.96 -2.09 -0.456 0 255 229 36 
3.964 -2.097 -0.449 0 255 233 35 
3.957 -2.099 -0.442 0 255 225 37 
3.959 -2.106 -0.434 0 255 153 54 
3.954 -2.109 -0.426 0 255 21 85 
3.957 -2.116 -0.419 42 255 0 100 
3.955 -2.121 -0.412 42 255 0 100 
3.955 -2.126 -0.405 38 255 0 99 
3.952 -2.13 -0.397 29 255 0 97 
3.946 -2.134 -0.389 0 255 21 85 
3.952 -2.141 -0.382 0 255 131 59 
3.955 -2.149 -0.376 0 221 255 26 
4.035 -1.993 -0.393 0 25 255 3 
4.054 -1.996 -0.402 0 178 255 21 
4.051 -1.989 -0.408 0 255 161 52 
4.05 -1.983 -0.415 0 255 68 74 
4.045 -1.974 -0.42 0 255 8 88 
4.053 -1.972 -0.428 0 255 17 86 
4.05 -1.966 -0.435 0 255 4 89 
4.051 -1.96 -0.442 0 255 4 89 
4.053 -1.955 -0.449 0 255 4 89 
4.058 -1.952 -0.456 0 255 8 88 
4.054 -1.944 -0.462 0 255 8 88 
4.063 -1.943 -0.469 0 255 85 70 
4.068 -1.94 -0.477 0 255 225 37 
4.065 -1.932 -0.483 0 195 255 23 
4.069 -1.929 -0.49 0 195 255 23 
4.072 -1.925 -0.497 0 212 255 25 
4.07 -1.918 -0.503 0 255 204 42 
4.077 -1.917 -0.51 0 255 102 66 
4.071 -1.908 -0.516 0 255 29 83 
4.078 -1.906 -0.523 0 255 0 90 
4.073 -1.898 -0.53 0 255 8 88 
4.079 -1.896 -0.537 4 255 0 91 
4.084 -1.894 -0.544 12 255 0 93 
4.086 -1.889 -0.551 12 255 0 93 
4.078 -1.881 -0.556 0 255 17 86 
4.088 -1.88 -0.564 12 255 0 93 
4.083 -1.872 -0.57 0 255 21 85 
4.09 -1.871 -0.577 12 255 0 93 
4.094 -1.867 -0.584 0 255 0 90 
4.097 -1.864 -0.591 0 255 12 87 
4.089 -1.856 -0.596 0 255 85 70 
4.094 -1.854 -0.603 0 255 212 40 
4.1 -1.852 -0.611 0 255 229 36 
4.101 -1.847 -0.617 0 255 131 59 
4.097 -1.841 -0.623 0 255 55 77 
4.102 -1.838 -0.63 0 255 4 89 
4.105 -1.835 -0.637 0 255 4 89 
4.104 -1.83 -0.644 0 255 0 90 
4.107 -1.827 -0.651 0 255 0 90 
4.102 -1.821 -0.656 0 255 0 90 
4.105 -1.817 -0.663 0 255 4 89 
4.109 -1.815 -0.67 0 255 4 89 
4.109 -1.81 -0.676 0 255 4 89 
4.111 -1.807 -0.682 0 255 0 90 
4.114 -1.804 -0.689 0 255 12 87 
4.112 -1.8 -0.695 0 255 0 90 
4.113 -1.796 -0.701 0 255 17 86 
4.115 -1.792 -0.708 0 255 12 87 
4.119 -1.791 -0.715 0 255 55 77 
4.119 -1.787 -0.721 0 255 148 55 
4.119 -1.783 -0.727 0 255 250 31 
4.124 -1.781 -0.734 0 161 255 19 
4.126 -1.778 -0.74 0 144 255 17 
4.125 -1.773 -0.746 0 238 255 28 
4.13 -1.772 -0.753 0 255 170 50 
4.126 -1.767 -0.759 0 255 76 72 
4.128 -1.764 -0.766 0 255 17 86 
4.124 -1.759 -0.771 4 255 0 91 
4.12 -1.754 -0.776 0 255 17 86 
4.123 -1.752 -0.783 0 255 4 89 
4.131 -1.751 -0.791 0 255 4 89 
4.127 -1.747 -0.796 0 255 21 85 
4.128 -1.744 -0.802 0 255 17 86 
4.129 -1.741 -0.808 0 255 17 86 
4.132 -1.739 -0.815 0 255 8 88 
4.131 -1.735 -0.82 0 255 63 75 
4.137 -1.734 -0.827 0 255 157 53 
4.139 -1.732 -0.833 0 255 229 36 
4.135 -1.727 -0.838 0 170 255 20 
4.139 -1.726 -0.845 0 110 255 13 
4.147 -1.727 -0.852 0 110 255 13 
4.142 -1.721 -0.857 0 110 255 13 
4.143 -1.72 -0.863 0 93 255 11 
4.144 -1.717 -0.869 0 93 255 11 
4.148 -1.716 -0.876 0 93 255 11 
4.144 -1.712 -0.881 0 93 255 11 
4.144 -1.709 -0.886 0 93 255 11 
4.15 -1.709 -0.893 0 93 255 11 
4.147 -1.705 -0.898 0 85 255 10 
4.15 -1.704 -0.904 0 85 255 10 
4.149 -1.701 -0.909 0 85 255 10 
4.149 -1.698 -0.915 0 85 255 10 
4.145 -1.695 -0.921 0 85 255 10 
4.147 -1.693 -0.927 0 85 255 10 
4.153 -1.693 -0.933 0 136 255 16 
4.152 -1.691 -0.938 0 153 255 18 
4.154 -1.689 -0.944 0 127 255 15 
4.159 -1.69 -0.951 0 68 255 8 
3.913 -2.037 -0.981 0 255 246 32 
3.905 -2.037 -0.973 0 255 144 56 
3.905 -2.04 -0.968 0 255 59 76 
3.909 -2.046 -0.963 0 255 25 84 
3.91 -2.05 -0.957 0 255 25 84 
3.9 -2.048 -0.949 0 255 42 80 
3.894 -2.05 -0.942 0 255 21 85 
3.902 -2.058 -0.938 0 255 25 84 
3.891 -2.056 -0.93 0 255 21 85 
3.899 -2.062 -0.925 0 255 42 80 
3.893 -2.064 -0.918 0 255 21 85 
3.891 -2.066 -0.911 0 255 21 85 
3.892 -2.071 -0.906 0 255 21 85 
3.89 -2.073 -0.899 0 255 34 82 
3.889 -2.076 -0.893 0 255 93 68 
3.887 -2.08 -0.886 0 255 136 58 
3.883 -2.081 -0.879 0 255 195 44 
3.882 -2.083 -0.872 0 255 233 35 
3.883 -2.087 -0.866 0 255 238 34 
3.883 -2.091 -0.859 0 255 238 34 
3.879 -2.093 -0.852 0 255 238 34 
3.88 -2.097 -0.846 0 255 233 35 
3.882 -2.101 -0.838 0 255 216 39 
3.88 -2.103 -0.831 0 255 195 44 
3.877 -2.106 -0.824 0 255 148 55 
3.883 -2.112 -0.819 0 255 89 69 
3.881 -2.115 -0.812 0 255 38 81 
3.875 -2.115 -0.803 0 255 46 79 
3.882 -2.123 -0.798 0 255 8 88 
3.876 -2.122 -0.79 0 255 51 78 
3.877 -2.126 -0.783 0 255 106 65 
3.871 -2.127 -0.775 0 255 148 55 
3.873 -2.131 -0.768 0 255 195 44 
3.865 -2.131 -0.759 0 255 208 41 
3.87 -2.137 -0.753 0 255 195 44 
3.866 -2.138 -0.745 0 255 187 46 
3.869 -2.143 -0.739 0 255 195 44 
3.871 -2.148 -0.732 0 255 195 44 
3.864 -2.147 -0.723 0 255 187 46 
3.866 -2.151 -0.716 0 255 182 47 
3.865 -2.154 -0.709 0 255 182 47 
3.866 -2.158 -0.701 0 255 174 49 
3.864 -2.16 -0.694 0 255 174 49 
3.862 -2.162 -0.686 0 255 161 52 
3.866 -2.167 -0.678 0 255 144 56 
3.863 -2.169 -0.67 0 255 97 67 
3.869 -2.175 -0.663 0 255 42 80 
3.871 -2.18 -0.656 12 255 0 93 
3.871 -2.183 -0.648 12 255 0 93 
3.868 -2.184 -0.64 0 255 4 89 
3.871 -2.189 -0.633 0 255 21 85 
3.866 -2.189 -0.624 0 255 63 75 
3.859 -2.189 -0.615 0 255 110 64 
3.859 -2.192 -0.607 0 255 157 53 
3.859 -2.195 -0.599 0 255 161 52 
3.859 -2.197 -0.592 0 255 161 52 
3.858 -2.2 -0.583 0 255 165 51 
3.862 -2.206 -0.576 0 255 144 56 
3.858 -2.207 -0.567 0 255 93 68 
3.865 -2.213 -0.56 0 255 42 80 
3.863 -2.215 -0.552 4 255 0 91 
3.862 -2.218 -0.544 4 255 0 91 
3.859 -2.218 -0.535 0 255 17 86 
3.866 -2.226 -0.528 12 255 0 93 
3.866 -2.228 -0.519 12 255 0 93 
3.867 -2.232 -0.511 17 255 0 94 
3.866 -2.235 -0.502 17 255 0 94 
3.867 -2.237 -0.493 25 255 0 96 
3.866 -2.24 -0.485 25 255 0 96 
3.865 -2.242 -0.477 17 255 0 94 
3.861 -2.243 -0.468 0 255 46 79 
3.86 -2.244 -0.459 0 255 136 58 
3.853 -2.244 -0.449 0 255 161 52 
3.852 -2.247 -0.441 0 255 161 52 
3.856 -2.251 -0.433 0 255 170 50 
3.855 -2.253 -0.424 0 255 178 48 
3.855 -2.256 -0.415 0 255 178 48 
3.858 -2.26 -0.407 0 255 195 44 
3.857 -2.262 -0.398 0 255 208 41 
3.861 -2.267 -0.39 0 255 216 39 
3.862 -2.27 -0.382 0 255 216 39 
3.862 -2.272 -0.373 0 255 212 40 
3.868 -2.279 -0.365 0 246 255 29 
3.875 -2.285 -0.357 0 76 255 9 
3.945 -2.175 -0.373 0 246 255 29 
3.936 -2.167 -0.382 0 255 93 68 
3.935 -2.163 -0.39 34 255 0 98 
3.936 -2.159 -0.398 34 255 0 98 
3.936 -2.156 -0.406 34 255 0 98 
3.938 -2.152 -0.415 34 255 0 98 
3.938 -2.149 -0.423 34 255 0 98 
3.938 -2.144 -0.431 42 255 0 100 
3.94 -2.142 -0.439 34 255 0 98 
3.941 -2.139 -0.448 34 255 0 98 
3.943 -2.136 -0.456 29 255 0 97 
3.939 -2.131 -0.463 21 255 0 95 
3.936 -2.122 -0.479 0 255 136 58 
3.939 -2.121 -0.488 0 255 199 43 
3.933 -2.114 -0.495 0 255 212 40 
3.936 -2.112 -0.503 0 255 208 41 
3.94 -2.111 -0.512 0 255 165 51 
3.942 -2.108 -0.52 0 255 97 67 
3.943 -2.105 -0.528 0 255 25 84 
3.94 -2.101 -0.536 0 255 0 90 
3.945 -2.099 -0.545 21 255 0 95 
3.949 -2.098 -0.554 34 255 0 98 
3.949 -2.095 -0.562 34 255 0 98 
3.945 -2.091 -0.569 21 255 0 95 
3.946 -2.088 -0.577 0 255 21 85 
3.943 -2.083 -0.584 0 255 131 59 
3.941 -2.08 -0.592 0 255 191 45 
3.941 -2.076 -0.6 0 255 208 41 
3.94 -2.074 -0.607 0 255 212 40 
3.939 -2.07 -0.615 0 255 216 39 
3.943 -2.068 -0.623 0 255 221 38 
3.944 -2.067 -0.631 0 255 225 37 
3.94 -2.061 -0.638 0 255 221 38 
3.941 -2.059 -0.646 0 255 212 40 
3.94 -2.055 -0.654 0 255 216 39 
3.944 -2.056 -0.662 0 255 225 37 
3.946 -2.053 -0.67 0 255 221 38 
3.94 -2.048 -0.676 0 255 216 39 
3.95 -2.05 -0.686 0 255 148 55 
3.952 -2.049 -0.694 0 255 68 74 
3.945 -2.043 -0.7 0 255 8 88 
3.953 -2.044 -0.709 21 255 0 95 
3.947 -2.039 -0.716 21 255 0 95 
3.951 -2.039 -0.724 34 255 0 98 
3.95 -2.036 -0.731 34 255 0 98 
3.949 -2.033 -0.739 12 255 0 93 
3.951 -2.031 -0.748 0 255 0 90 
3.954 -2.03 -0.755 0 255 55 77 
3.944 -2.024 -0.761 0 255 119 62 
3.947 -2.023 -0.769 0 255 170 50 
3.95 -2.023 -0.777 0 255 208 41 
3.947 -2.019 -0.784 0 255 221 38 
3.947 -2.017 -0.791 0 255 153 54 
3.951 -2.017 -0.8 0 255 55 77 
3.949 -2.013 -0.806 21 255 0 95 
3.95 -2.013 -0.814 17 255 0 94 
3.947 -2.009 -0.821 29 255 0 97 
3.948 -2.007 -0.828 21 255 0 95 
3.95 -2.006 -0.835 21 255 0 95 
3.953 -2.007 -0.843 0 255 12 87 
3.949 -2.002 -0.85 21 255 0 95 
3.948 -2.001 -0.856 17 255 0 94 
3.946 -1.999 -0.863 17 255 0 94 
3.946 -1.997 -0.87 17 255 0 94 
3.952 -1.998 -0.878 0 255 4 89 
3.95 -1.995 -0.885 0 255 12 87 
3.948 -1.993 -0.892 0 255 93 68 
3.948 -1.991 -0.898 0 255 199 43 
3.951 -1.992 -0.906 0 255 255 30 
3.945 -1.987 -0.912 0 212 255 25 
3.947 -1.988 -0.919 0 221 255 26 
3.946 -1.985 -0.926 0 212 255 25 
3.947 -1.984 -0.933 0 204 255 24 
3.943 -1.981 -0.939 0 204 255 24 
3.943 -1.98 -0.945 0 204 255 24 
3.944 -1.979 -0.953 0 204 255 24 
3.945 -1.979 -0.959 0 204 255 24 
3.944 -1.977 -0.966 0 195 255 23 
3.946 -1.977 -0.973 0 195 255 23 
3.939 -1.973 -0.978 0 161 255 19 
3.946 -1.975 -0.986 0 110 255 13 
3.934 -1.968 -0.989 0 42 255 5 
3.715 -2.318 -0.942 0 255 225 37 
3.718 -2.321 -0.936 0 255 187 46 
3.719 -2.322 -0.929 0 255 187 46 
3.717 -2.323 -0.921 0 255 174 49 
3.719 -2.324 -0.914 0 255 174 49 
3.719 -2.326 -0.907 0 255 174 49 
3.72 -2.328 -0.9 0 255 174 49 
3.718 -2.329 -0.893 0 255 170 50 
3.721 -2.331 -0.886 0 255 153 54 
3.717 -2.33 -0.877 0 255 140 57 
3.716 -2.33 -0.87 0 255 144 56 
3.714 -2.329 -0.862 0 255 144 56 
3.717 -2.332 -0.855 0 255 123 61 
3.726 -2.338 -0.85 0 255 80 71 
3.728 -2.34 -0.842 0 255 46 79 
3.731 -2.343 -0.836 0 255 25 84 
3.731 -2.344 -0.828 38 255 0 99 
3.73 -2.344 -0.82 51 255 0 102 
3.729 -2.345 -0.812 93 255 0 112 
3.728 -2.344 -0.804 76 255 0 108 
3.728 -2.345 -0.796 29 255 0 97 
3.732 -2.348 -0.789 17 255 0 94 
3.73 -2.347 -0.781 0 255 0 90 
3.734 -2.351 -0.774 0 255 0 90 
3.734 -2.352 -0.766 17 255 0 94 
3.733 -2.351 -0.757 0 255 25 84 
3.733 -2.352 -0.749 0 255 102 66 
3.731 -2.351 -0.741 0 255 182 47 
3.731 -2.352 -0.733 0 255 191 45 
3.732 -2.352 -0.725 0 255 191 45 
3.733 -2.354 -0.717 0 255 123 61 
3.736 -2.357 -0.71 0 255 229 36 
3.737 -2.357 -0.702 0 255 250 31 
3.745 -2.363 -0.695 0 229 255 27 
3.753 -2.368 -0.688 0 170 255 20 
3.749 -2.365 -0.679 0 136 255 16 
3.753 -2.368 -0.671 0 110 255 13 
3.756 -2.37 -0.662 0 76 255 9 
3.756 -2.371 -0.645 0 51 255 6 
3.735 -2.357 -0.634 0 25 255 3 
4.215 -1.673 -0.436 0 8 255 1 
4.198 -1.682 -0.429 0 17 255 2 
3.863 -2.295 -0.359 0 255 225 37 
3.851 -2.288 -0.367 0 255 59 76 
3.852 -2.287 -0.376 17 255 0 94 
3.855 -2.288 -0.385 12 255 0 93 
3.849 -2.283 -0.394 0 255 17 86 
3.851 -2.284 -0.403 0 255 29 83 
3.844 -2.279 -0.411 0 255 59 76 
3.844 -2.279 -0.421 0 255 85 70 
3.845 -2.278 -0.43 0 255 119 62 
3.844 -2.277 -0.438 0 255 136 58 
3.846 -2.277 -0.448 0 255 136 58 
3.839 -2.272 -0.455 0 255 102 66 
3.842 -2.273 -0.465 0 255 46 79 
3.848 -2.276 -0.475 25 255 0 96 
3.845 -2.273 -0.483 25 255 0 96 
3.847 -2.274 -0.492 25 255 0 96 
3.841 -2.27 -0.5 46 255 0 101 
3.842 -2.271 -0.509 17 255 0 94 
3.844 -2.27 -0.518 34 255 0 98 
3.842 -2.268 -0.527 25 255 0 96 
3.835 -2.264 -0.535 46 255 0 101 
3.836 -2.265 -0.543 46 255 0 101 
3.837 -2.265 -0.552 0 255 4 89 
3.83 -2.261 -0.56 0 255 76 72 
3.823 -2.256 -0.568 0 255 110 64 
3.822 -2.255 -0.576 0 255 110 64 
3.821 -2.255 -0.585 0 255 123 61 
3.818 -2.252 -0.593 0 255 136 58 
3.825 -2.256 -0.602 0 255 161 52 
3.82 -2.254 -0.61 0 255 174 49 
3.82 -2.253 -0.619 0 255 174 49 
3.818 -2.252 -0.627 0 255 174 49 
3.817 -2.251 -0.635 0 255 165 51 
3.817 -2.252 -0.644 0 255 161 52 
3.818 -2.252 -0.652 0 255 157 53 
3.819 -2.251 -0.661 0 255 76 72 
3.816 -2.25 -0.669 0 255 4 89 
3.817 -2.251 -0.677 29 255 0 97 
3.815 -2.25 -0.686 29 255 0 97 
3.816 -2.25 -0.694 25 255 0 96 
3.821 -2.254 -0.703 17 255 0 94 
3.809 -2.247 -0.709 4 255 0 91 
3.814 -2.249 -0.718 59 255 0 104 
3.813 -2.249 -0.726 76 255 0 108 
3.813 -2.249 -0.734 68 255 0 106 
3.806 -2.246 -0.741 38 255 0 99 
3.811 -2.25 -0.751 0 255 4 89 
3.809 -2.248 -0.758 0 255 59 76 
3.801 -2.244 -0.765 0 255 106 65 
3.792 -2.24 -0.771 0 255 131 59 
3.792 -2.24 -0.779 0 255 136 58 
3.791 -2.239 -0.786 0 255 136 58 
3.788 -2.238 -0.794 0 255 131 59 
3.788 -2.239 -0.802 0 255 136 58 
3.786 -2.238 -0.809 0 255 136 58 
3.79 -2.24 -0.818 0 255 119 62 
3.782 -2.237 -0.824 0 255 140 57 
3.786 -2.239 -0.833 0 255 153 54 
3.779 -2.237 -0.839 0 255 140 57 
3.78 -2.237 -0.847 0 255 161 52 
3.781 -2.239 -0.855 0 255 119 62 
3.787 -2.243 -0.864 0 255 76 72 
3.783 -2.242 -0.871 0 255 29 83 
3.787 -2.245 -0.879 0 255 4 89 
3.784 -2.244 -0.887 4 255 0 91 
3.786 -2.247 -0.894 12 255 0 93 
3.787 -2.247 -0.902 0 255 0 90 
3.777 -2.243 -0.907 0 255 21 85 
3.775 -2.243 -0.914 0 255 21 85 
3.774 -2.242 -0.921 0 255 21 85 
3.772 -2.242 -0.928 0 255 21 85 
3.779 -2.248 -0.938 0 255 8 88 
3.775 -2.247 -0.944 0 255 21 85 
3.77 -2.245 -0.95 0 255 51 78 
3.774 -2.247 -0.958 0 255 174 49 
4.186 -1.686 -0.776 0 170 255 20 
4.182 -1.69 -0.772 0 255 144 56 
4.171 -1.692 -0.766 0 255 38 81 
4.166 -1.696 -0.762 0 255 34 82 
4.17 -1.704 -0.758 0 255 34 82 
4.164 -1.707 -0.754 0 255 38 81 
4.164 -1.713 -0.75 0 255 34 82 
4.161 -1.718 -0.746 0 255 38 81 
4.154 -1.721 -0.741 0 255 68 74 
4.151 -1.726 -0.737 0 255 89 69 
4.155 -1.734 -0.734 0 255 157 53 
4.156 -1.74 -0.73 0 255 199 43 
4.153 -1.745 -0.726 0 255 233 35 
4.15 -1.75 -0.722 0 204 255 24 
4.141 -1.753 -0.716 0 127 255 15 
4.146 -1.761 -0.713 0 119 255 14 
4.135 -1.763 -0.707 0 187 255 22 
4.139 -1.771 -0.703 0 255 174 49 
4.127 -1.773 -0.697 0 255 46 79 
4.125 -1.777 -0.692 0 255 25 84 
4.123 -1.783 -0.688 0 255 17 86 
4.122 -1.789 -0.683 0 255 17 86 
4.121 -1.794 -0.679 0 255 17 86 
4.116 -1.8 -0.674 0 255 17 86 
4.115 -1.804 -0.669 0 255 17 86 
4.112 -1.81 -0.664 0 255 25 84 
4.11 -1.816 -0.66 0 255 25 84 
4.106 -1.82 -0.654 0 255 12 87 
4.104 -1.826 -0.649 0 255 12 87 
4.102 -1.832 -0.644 0 255 4 89 
4.1 -1.837 -0.638 0 255 4 89 
4.1 -1.843 -0.634 0 255 12 87 
4.091 -1.846 -0.628 0 255 72 73 
4.095 -1.854 -0.623 0 255 212 40 
4.091 -1.858 -0.618 0 255 246 32 
4.092 -1.865 -0.613 0 255 174 49 
4.087 -1.87 -0.608 0 255 102 66 
4.082 -1.874 -0.602 0 255 46 79 
4.074 -1.877 -0.596 0 255 17 86 
4.074 -1.884 -0.591 0 255 21 85 
4.076 -1.891 -0.586 4 255 0 91 
4.067 -1.893 -0.579 0 255 4 89 
4.065 -1.899 -0.573 0 255 4 89 
4.062 -1.904 -0.567 4 255 0 91 
4.062 -1.911 -0.562 0 255 8 88 
4.062 -1.917 -0.557 0 255 8 88 
4.056 -1.921 -0.551 0 255 4 89 
4.054 -1.927 -0.545 4 255 0 91 
4.056 -1.934 -0.54 0 255 72 73 
4.049 -1.938 -0.533 0 255 229 36 
4.053 -1.946 -0.528 0 221 255 26 
4.045 -1.948 -0.522 0 212 255 25 
4.048 -1.956 -0.517 0 229 255 27 
4.043 -1.96 -0.51 0 246 255 29 
4.037 -1.965 -0.504 0 255 212 40 
4.032 -1.969 -0.497 0 255 153 54 
4.037 -1.977 -0.492 0 255 51 78 
4.031 -1.982 -0.485 0 255 21 85 
4.033 -1.989 -0.48 0 255 4 89 
4.025 -1.993 -0.473 0 255 17 86 
4.028 -2 -0.467 4 255 0 91 
4.014 -2 -0.46 21 255 0 95 
4.024 -2.011 -0.455 4 255 0 91 
4.018 -2.015 -0.448 0 255 17 86 
4.015 -2.02 -0.442 0 255 127 60 
4.016 -2.027 -0.436 0 255 255 30 
4.01 -2.031 -0.429 0 212 255 25 
4.008 -2.036 -0.422 0 195 255 23 
4.007 -2.042 -0.415 0 178 255 21 
4.002 -2.047 -0.408 0 161 255 19 
4.003 -2.053 -0.402 0 144 255 17 
4.013 -2.065 -0.397 0 102 255 12 
3.994 -2.063 -0.389 0 42 255 5 
4.112 -1.898 -0.405 0 17 255 2 
4.109 -1.89 -0.41 0 51 255 6 
4.119 -1.887 -0.417 0 93 255 11 
4.115 -1.879 -0.423 0 119 255 14 
4.12 -1.876 -0.429 0 127 255 15 
4.121 -1.87 -0.435 0 127 255 15 
4.12 -1.863 -0.441 0 119 255 14 
4.124 -1.859 -0.447 0 170 255 20 
4.127 -1.854 -0.453 0 255 153 54 
4.127 -1.848 -0.459 0 255 25 84 
4.13 -1.843 -0.465 0 255 17 86 
4.131 -1.837 -0.471 0 255 17 86 
4.13 -1.83 -0.477 0 255 17 86 
4.132 -1.826 -0.483 0 255 17 86 
4.139 -1.822 -0.49 0 255 4 89 
4.138 -1.816 -0.496 0 255 17 86 
4.139 -1.81 -0.502 0 255 17 86 
4.142 -1.806 -0.508 0 255 25 84 
4.149 -1.804 -0.515 0 255 80 71 
4.153 -1.793 -0.526 0 246 255 29 
4.153 -1.788 -0.532 0 144 255 17 
4.155 -1.783 -0.538 0 119 255 14 
4.164 -1.781 -0.545 0 119 255 14 
4.166 -1.777 -0.551 0 144 255 17 
4.173 -1.774 -0.558 0 255 208 41 
4.164 -1.765 -0.562 0 255 68 74 
4.164 -1.76 -0.569 0 255 4 89 
4.164 -1.754 -0.575 0 255 21 85 
4.167 -1.75 -0.581 0 255 8 88 
4.168 -1.746 -0.587 0 255 8 88 
4.176 -1.744 -0.594 0 255 25 84 
4.171 -1.736 -0.598 0 255 8 88 
4.171 -1.732 -0.604 0 255 8 88 
4.178 -1.729 -0.611 0 255 34 82 
4.18 -1.726 -0.617 0 255 25 84 
4.183 -1.722 -0.623 0 255 51 78 
4.192 -1.72 -0.63 0 255 153 54 
4.194 -1.717 -0.636 0 255 233 35 
4.193 -1.712 -0.641 0 153 255 18 
4.189 -1.705 -0.646 0 93 255 11 
4.197 -1.704 -0.653 0 76 255 9 
4.198 -1.699 -0.659 0 76 255 9 
4.198 -1.695 -0.665 0 76 255 9 
4.202 -1.692 -0.671 0 51 255 6 
4.002 -1.875 -1 0 255 119 62 
4.002 -1.88 -0.996 0 255 68 74 
3.996 -1.882 -0.99 0 255 68 74 
3.995 -1.886 -0.985 0 255 63 75 
3.994 -1.89 -0.98 0 255 63 75 
3.996 -1.896 -0.976 0 255 55 77 
3.989 -1.897 -0.97 0 255 46 79 
3.99 -1.901 -0.964 0 255 51 78 
3.99 -1.906 -0.96 0 255 34 82 
3.988 -1.91 -0.954 0 255 51 78 
3.986 -1.913 -0.949 0 255 46 79 
3.99 -1.919 -0.945 0 255 29 83 
3.982 -1.92 -0.938 0 255 34 82 
3.982 -1.925 -0.933 0 255 42 80 
3.981 -1.929 -0.928 0 255 42 80 
3.982 -1.934 -0.923 0 255 80 71 
3.981 -1.938 -0.918 0 255 174 49 
3.983 -1.944 -0.913 0 255 246 32 
3.981 -1.947 -0.907 0 255 229 36 
3.977 -1.949 -0.901 0 255 178 48 
3.972 -1.952 -0.895 0 255 110 64 
3.976 -1.958 -0.89 0 255 46 79 
3.971 -1.96 -0.884 0 255 29 83 
3.97 -1.964 -0.878 0 255 29 83 
3.971 -1.97 -0.872 0 255 21 85 
3.968 -1.972 -0.866 0 255 29 83 
3.968 -1.977 -0.86 0 255 29 83 
3.963 -1.98 -0.853 0 255 38 81 
3.967 -1.985 -0.848 0 255 29 83 
3.966 -1.989 -0.842 0 255 29 83 
3.965 -1.993 -0.836 0 255 25 84 
3.963 -1.997 -0.83 0 255 25 84 
3.957 -1.999 -0.823 0 255 25 84 
3.959 -2.004 -0.817 0 255 12 87 
3.956 -2.007 -0.811 0 255 25 84 
3.953 -2.01 -0.804 0 255 55 77 
3.949 -2.012 -0.797 0 255 119 62 
3.942 -2.014 -0.789 0 255 187 46 
3.947 -2.02 -0.784 0 255 182 47 
3.954 -2.029 -0.78 0 255 93 68 
3.943 -2.028 -0.771 0 255 21 85 
3.942 -2.032 -0.764 0 255 21 85 
3.939 -2.039 -0.75 0 255 12 87 
3.939 -2.044 -0.744 0 255 12 87 
3.938 -2.048 -0.737 0 255 12 87 
3.945 -2.055 -0.732 17 255 0 94 
3.937 -2.056 -0.723 0 255 12 87 
3.934 -2.059 -0.716 0 255 8 88 
3.933 -2.063 -0.71 0 255 8 88 
3.938 -2.069 -0.704 8 255 0 92 
3.923 -2.066 -0.694 0 255 51 78 
3.926 -2.072 -0.688 0 255 114 63 
3.929 -2.077 -0.681 0 255 161 52 
3.922 -2.079 -0.673 0 255 216 39 
3.922 -2.082 -0.666 0 255 216 39 
3.923 -2.087 -0.66 0 255 212 40 
3.919 -2.09 -0.652 0 255 212 40 
3.92 -2.095 -0.645 0 255 212 40 
3.917 -2.097 -0.637 0 255 204 42 
3.916 -2.101 -0.629 0 255 165 51 
3.919 -2.108 -0.622 0 255 93 68 
3.917 -2.111 -0.615 0 255 29 83 
3.92 -2.116 -0.608 4 255 0 91 
3.916 -2.118 -0.6 0 255 0 90 
3.92 -2.125 -0.593 0 255 0 90 
3.914 -2.126 -0.585 0 255 34 82 
3.913 -2.13 -0.578 0 255 123 61 
3.905 -2.13 -0.569 0 255 174 49 
3.907 -2.135 -0.562 0 255 191 45 
3.907 -2.139 -0.554 0 255 182 47 
3.906 -2.143 -0.547 0 255 182 47 
3.903 -2.145 -0.539 0 255 187 46 
3.904 -2.15 -0.531 0 255 191 45 
3.903 -2.154 -0.523 0 255 191 45 
3.907 -2.159 -0.516 0 255 182 47 
3.902 -2.161 -0.508 0 255 182 47 
3.9 -2.164 -0.5 0 255 191 45 
3.898 -2.168 -0.491 0 255 187 46 
3.899 -2.172 -0.483 0 255 182 47 
3.9 -2.176 -0.475 0 255 131 59 
3.899 -2.179 -0.467 0 255 68 74 
3.903 -2.186 -0.46 0 255 8 88 
3.907 -2.192 -0.452 0 255 68 74 
3.9 -2.192 -0.443 0 255 144 56 
3.893 -2.192 -0.435 0 255 191 45 
3.897 -2.198 -0.427 0 255 195 44 
3.893 -2.201 -0.418 0 255 195 44 
3.893 -2.205 -0.41 0 255 199 43 
3.894 -2.209 -0.402 0 255 195 44 
3.892 -2.212 -0.394 0 255 208 41 
3.893 -2.216 -0.386 0 255 216 39 
3.891 -2.219 -0.377 0 255 238 34 
3.899 -2.228 -0.37 0 170 255 20 
3.98 -2.106 -0.387 0 76 255 9 
3.981 -2.101 -0.395 0 144 255 17 
3.979 -2.095 -0.403 0 187 255 22 
3.979 -2.091 -0.411 0 204 255 24 
3.983 -2.087 -0.419 0 221 255 26 
3.975 -2.079 -0.426 0 246 255 29 
3.978 -2.076 -0.434 0 246 255 29 
3.979 -2.071 -0.441 0 246 255 29 
3.98 -2.067 -0.449 0 246 255 29 
3.986 -2.065 -0.457 0 255 255 30 
3.98 -2.057 -0.464 0 255 255 30 
3.988 -2.057 -0.472 0 255 250 31 
3.984 -2.051 -0.479 0 255 238 34 
3.988 -2.048 -0.487 0 255 148 55 
3.994 -2.046 -0.495 0 255 42 80 
3.989 -2.04 -0.502 17 255 0 94 
3.99 -2.036 -0.51 21 255 0 95 
3.995 -2.034 -0.518 0 255 12 87 
3.99 -2.027 -0.526 0 255 42 80 
3.989 -2.023 -0.533 0 255 119 62 
3.991 -2.02 -0.54 0 255 208 41 
3.999 -2.019 -0.549 0 255 246 32 
4 -2.016 -0.556 0 255 250 31 
3.998 -2.011 -0.563 0 255 250 31 
3.991 -2.003 -0.57 0 255 255 30 
4 -2.004 -0.578 0 255 255 30 
4.002 -2 -0.586 0 255 242 33 
3.996 -1.993 -0.592 0 255 165 51 
4.007 -1.996 -0.602 0 255 59 76 
4.004 -1.99 -0.608 0 255 12 87 
4.006 -1.987 -0.616 0 255 4 89 
4.001 -1.981 -0.622 21 255 0 95 
4.01 -1.981 -0.631 0 255 17 86 
4.002 -1.973 -0.637 21 255 0 95 
4.008 -1.973 -0.645 0 255 4 89 
4.009 -1.97 -0.652 0 255 4 89 
4.011 -1.968 -0.66 0 255 17 86 
4.009 -1.963 -0.668 0 255 4 89 
4.012 -1.961 -0.675 0 255 17 86 
4.012 -1.958 -0.682 0 255 17 86 
4.013 -1.954 -0.69 0 255 21 85 
4.009 -1.95 -0.696 0 255 85 70 
4.015 -1.948 -0.704 0 255 191 45 
4.019 -1.947 -0.712 0 255 242 33 
4.016 -1.942 -0.718 0 255 212 40 
4.013 -1.939 -0.725 0 255 131 59 
4.019 -1.937 -0.733 0 255 51 78 
4.02 -1.934 -0.74 0 255 4 89 
4.015 -1.93 -0.746 0 255 21 85 
4.018 -1.928 -0.753 0 255 8 88 
4.021 -1.926 -0.761 4 255 0 91 
4.019 -1.923 -0.768 0 255 4 89 
4.02 -1.92 -0.775 0 255 4 89 
4.02 -1.918 -0.782 4 255 0 91 
4.02 -1.914 -0.788 0 255 4 89 
4.015 -1.909 -0.794 0 255 21 85 
4.023 -1.911 -0.802 0 255 93 68 
4.019 -1.906 -0.808 0 255 204 42 
4.023 -1.905 -0.816 0 229 255 27 
4.017 -1.899 -0.821 0 187 255 22 
4.021 -1.899 -0.829 0 187 255 22 
4.019 -1.896 -0.836 0 178 255 21 
4.02 -1.893 -0.843 0 161 255 19 
4.028 -1.895 -0.851 0 170 255 20 
4.026 -1.891 -0.858 0 161 255 19 
4.026 -1.889 -0.864 0 161 255 19 
4.025 -1.886 -0.871 0 161 255 19 
4.023 -1.883 -0.877 0 170 255 20 
4.022 -1.881 -0.883 0 170 255 20 
4.022 -1.879 -0.89 0 170 255 20 
4.026 -1.878 -0.897 0 170 255 20 
4.024 -1.876 -0.903 0 221 255 26 
4.028 -1.874 -0.91 0 255 208 41 
4.021 -1.87 -0.915 0 255 89 69 
4.024 -1.869 -0.922 0 255 38 81 
4.023 -1.867 -0.928 0 255 0 90 
4.03 -1.868 -0.936 0 255 4 89 
4.03 -1.866 -0.942 0 255 12 87 
4.023 -1.862 -0.947 0 255 46 79 
4.019 -1.858 -0.952 0 255 80 71 
4.023 -1.859 -0.96 0 255 110 64 
4.022 -1.856 -0.966 0 255 157 53 
4.022 -1.855 -0.972 0 255 212 40 
4.031 -1.857 -0.98 0 255 250 31 
4.026 -1.853 -0.985 0 204 255 24 
4.027 -1.852 -0.991 0 144 255 17 
4.025 -1.85 -0.997 0 119 255 14 
4.026 -1.849 -1.003 0 102 255 12 
3.792 -2.207 -0.961 0 255 165 51 
3.79 -2.208 -0.954 0 255 51 78 
3.796 -2.213 -0.949 0 255 29 83 
3.79 -2.213 -0.941 0 255 42 80 
3.794 -2.217 -0.935 0 255 21 85 
3.794 -2.219 -0.929 0 255 21 85 
3.792 -2.22 -0.921 0 255 42 80 
3.789 -2.221 -0.913 0 255 42 80 
3.793 -2.225 -0.907 0 255 46 79 
3.792 -2.227 -0.9 0 255 42 80 
3.791 -2.228 -0.893 0 255 46 79 
3.792 -2.233 -0.879 0 255 59 76 
3.792 -2.235 -0.871 0 255 80 71 
3.788 -2.235 -0.863 0 255 136 58 
3.786 -2.237 -0.855 0 255 165 51 
3.784 -2.238 -0.847 0 255 174 49 
3.784 -2.24 -0.84 0 255 174 49 
3.785 -2.242 -0.833 0 255 174 49 
3.786 -2.244 -0.826 0 255 170 50 
3.786 -2.246 -0.818 0 255 165 51 
3.788 -2.25 -0.811 0 255 157 53 
3.781 -2.248 -0.802 0 255 140 57 
3.782 -2.249 -0.795 0 255 140 57 
3.787 -2.254 -0.788 0 255 153 54 
3.788 -2.258 -0.781 0 255 161 52 
3.785 -2.257 -0.773 0 255 157 53 
3.784 -2.258 -0.765 0 255 136 58 
3.789 -2.264 -0.758 0 255 93 68 
3.791 -2.265 -0.75 0 255 46 79 
3.79 -2.267 -0.742 0 255 4 89 
3.792 -2.271 -0.727 0 255 46 79 
3.794 -2.275 -0.72 0 255 59 76 
3.792 -2.275 -0.711 0 255 80 71 
3.791 -2.276 -0.703 0 255 97 67 
3.79 -2.277 -0.694 0 255 110 64 
3.785 -2.276 -0.685 0 255 123 61 
3.786 -2.278 -0.677 0 255 127 60 
3.784 -2.279 -0.669 0 255 127 60 
3.791 -2.284 -0.662 0 255 110 64 
3.796 -2.288 -0.655 0 255 80 71 
