3.81400013 -2.30100012 -0.46100003 0 255 119 62.000000
3.81900024 -2.30500007 -0.45200002 0 255 63 75.000000
3.82800007 -2.31100011 -0.44400004 12 255 0 93.000000
3.83000016 -2.31300020 -0.43600002 17 255 0 94.000000
3.82800007 -2.31400013 -0.42700002 25 255 0 96.000000
3.83000016 -2.31700015 -0.41800001 17 255 0 94.000000
3.83000016 -2.31800008 -0.40900001 17 255 0 94.000000
3.82600021 -2.31600022 -0.40000001 46 255 0 101.000000
3.83300018 -2.32000017 -0.39100003 25 255 0 96.000000
3.83200026 -2.32100010 -0.38200003 25 255 0 96.000000
3.83000016 -2.32000017 -0.37300003 25 255 0 96.000000
3.82900023 -2.32200003 -0.36400002 0 255 51 78.000000
3.84300017 -2.33100009 -0.35600001 0 255 221 38.000000
3.90500021 -2.23200011 -0.36400002 0 68 255 8.000000
3.89400029 -2.22300005 -0.37200001 0 204 255 24.000000
3.89500022 -2.22100019 -0.38000003 0 255 225 37.000000
3.89300013 -2.21600008 -0.38900003 0 255 208 41.000000
3.89000010 -2.21200013 -0.39700001 0 255 199 43.000000
3.89100027 -2.21100020 -0.40600002 0 255 199 43.000000
3.89200020 -2.20800018 -0.41400003 0 255 195 44.000000
3.89200020 -2.20600009 -0.42300001 0 255 195 44.000000
3.89000010 -2.20300007 -0.43100002 0 255 187 46.000000
3.89100027 -2.20000005 -0.44000003 0 255 187 46.000000
3.89300013 -2.19800019 -0.44900003 0 255 178 48.000000
3.89300013 -2.19600010 -0.45700002 0 255 144 56.000000
3.89500022 -2.19500017 -0.46600002 0 255 123 61.000000
3.89200020 -2.19200015 -0.47400004 0 255 131 59.000000
3.89000010 -2.18800020 -0.48200002 0 255 161 52.000000
3.88700008 -2.18400002 -0.49000001 0 255 174 49.000000
3.88900018 -2.18200016 -0.49900001 0 255 178 48.000000
3.88600016 -2.17800021 -0.50700003 0 255 178 48.000000
3.88700008 -2.17700005 -0.51600003 0 255 174 49.000000
3.88700008 -2.17500019 -0.52400005 0 255 174 49.000000
3.88200021 -2.17000008 -0.53200001 0 255 161 52.000000
3.88900018 -2.17100000 -0.54100001 0 255 165 51.000000
3.88600016 -2.16800022 -0.54900002 0 255 170 50.000000
3.88500023 -2.16600013 -0.55800003 0 255 170 50.000000
3.88700008 -2.16400003 -0.56700003 0 255 148 55.000000
3.89000010 -2.16400003 -0.57600003 0 255 51 78.000000
3.89300013 -2.16400003 -0.58400005 17 255 0 94.000000
3.89400029 -2.16200018 -0.59300005 25 255 0 96.000000
3.89300013 -2.16000009 -0.60100001 17 255 0 94.000000
3.89500022 -2.16000009 -0.61000001 12 255 0 93.000000
3.89300013 -2.15600014 -0.61700004 25 255 0 96.000000
3.89300013 -2.15400004 -0.62500000 25 255 0 96.000000
3.90100026 -2.15600014 -0.63500005 29 255 0 97.000000
3.89100027 -2.15000010 -0.64200002 17 255 0 94.000000
3.89100027 -2.14800000 -0.65000004 17 255 0 94.000000
3.89200020 -2.14700007 -0.65800005 25 255 0 96.000000
3.89200020 -2.14600015 -0.66600001 4 255 0 91.000000
3.88300014 -2.14000010 -0.67300004 0 255 80 71.000000
3.88200021 -2.13700008 -0.68000001 0 255 144 56.000000
3.87800026 -2.13300014 -0.68800002 0 255 161 52.000000
3.88200021 -2.13400006 -0.69600004 0 255 174 49.000000
3.88400030 -2.13400006 -0.70500004 0 255 187 46.000000
3.88000011 -2.13000011 -0.71200001 0 255 178 48.000000
3.87900019 -2.12900019 -0.72000003 0 255 178 48.000000
3.87600017 -2.12600017 -0.72700006 0 255 182 47.000000
3.87300014 -2.12300014 -0.73400003 0 255 182 47.000000
3.87700009 -2.12300014 -0.74300003 0 255 178 48.000000
3.87800026 -2.12300014 -0.75100005 0 255 187 46.000000
3.87500024 -2.12000012 -0.75800002 0 255 187 46.000000
3.88200021 -2.12200022 -0.76700002 0 255 187 46.000000
3.87900019 -2.12000012 -0.77500004 0 255 136 58.000000
3.88200021 -2.12000012 -0.78300005 0 255 63 75.000000
3.88400030 -2.12000012 -0.79100001 0 255 12 87.000000
3.88400030 -2.11900020 -0.79900002 0 255 8 88.000000
3.88200021 -2.11700010 -0.80600005 0 255 12 87.000000
3.88000011 -2.11600018 -0.81300002 0 255 34 82.000000
3.87300014 -2.11100006 -0.82000005 0 255 59 76.000000
3.88200021 -2.11500001 -0.82900006 0 255 97 67.000000
3.87700009 -2.11100006 -0.83600003 0 255 114 63.000000
3.87400007 -2.10800004 -0.84200007 0 255 131 59.000000
3.87400007 -2.10800004 -0.85000002 0 255 157 53.000000
3.87500024 -2.10800004 -0.85800004 0 255 178 48.000000
3.87100029 -2.10500002 -0.86400002 0 255 195 44.000000
3.87100029 -2.10400009 -0.87200004 0 255 195 44.000000
3.86800027 -2.10200000 -0.87900007 0 255 131 59.000000
3.87800026 -2.10600019 -0.88800007 0 255 68 74.000000
3.87400007 -2.10400009 -0.89500004 0 255 8 88.000000
3.87400007 -2.10300016 -0.90200007 0 255 8 88.000000
3.87100029 -2.10200000 -0.90900004 0 255 0 90.000000
3.87100029 -2.10000014 -0.91500002 0 255 0 90.000000
3.86900020 -2.10000014 -0.92300004 0 255 0 90.000000
3.86800027 -2.09800005 -0.93000007 4 255 0 91.000000
3.86700010 -2.09700012 -0.93700004 0 255 0 90.000000
3.87000012 -2.09900022 -0.94500005 21 255 0 95.000000
3.86800027 -2.09700012 -0.95200002 21 255 0 95.000000
3.86600018 -2.09600019 -0.95800006 0 255 12 87.000000
3.86300015 -2.09400010 -0.96400005 0 255 102 66.000000
3.86500025 -2.09600019 -0.97200006 0 255 229 36.000000
4.21800041 -1.68600011 -0.56900001 0 255 225 37.000000
4.20700026 -1.68700004 -0.56500000 0 255 46 79.000000
4.20300007 -1.69300008 -0.56100005 0 255 25 84.000000
4.20300007 -1.70000005 -0.55700004 0 255 34 82.000000
4.19800043 -1.70600009 -0.55300003 0 255 34 82.000000
4.19600010 -1.71200013 -0.55000001 0 255 34 82.000000
4.19400024 -1.71800005 -0.54600000 0 255 34 82.000000
4.19000006 -1.72400010 -0.54200006 0 255 38 81.000000
4.18600035 -1.72900009 -0.53800005 0 255 63 75.000000
4.18700027 -1.73700011 -0.53500003 0 255 97 67.000000
4.19200039 -1.74700010 -0.53200001 0 255 144 56.000000
4.18700027 -1.75200009 -0.52800000 0 255 204 42.000000
4.18500042 -1.75900006 -0.52400005 0 255 238 34.000000
4.17500019 -1.76200008 -0.51900005 0 221 255 26.000000
4.17700005 -1.77000010 -0.51500005 0 255 199 43.000000
4.16499996 -1.77200007 -0.50900000 0 255 63 75.000000
4.16300011 -1.77900004 -0.50500000 0 255 21 85.000000
4.15900040 -1.78500009 -0.50100005 0 255 17 86.000000
4.14900017 -1.78800011 -0.49600002 0 255 17 86.000000
4.15500021 -1.79800010 -0.49300003 0 255 17 86.000000
4.14800024 -1.80200005 -0.48800004 0 255 4 89.000000
4.14200020 -1.80700004 -0.48300001 0 255 12 87.000000
4.14300013 -1.81500006 -0.47900003 0 255 4 89.000000
4.14100027 -1.82200015 -0.47500002 0 255 4 89.000000
4.13600016 -1.82700014 -0.47000003 0 255 17 86.000000
4.13300037 -1.83300006 -0.46500003 0 255 12 87.000000
4.13100004 -1.84000003 -0.46000001 0 255 12 87.000000
4.12300014 -1.84400010 -0.45600003 0 255 42 80.000000
4.13100004 -1.85500014 -0.45200002 0 255 221 38.000000
4.12700033 -1.86000013 -0.44700003 0 136 255 16.000000
4.12300014 -1.86700010 -0.44300002 0 136 255 16.000000
4.11600018 -1.87100005 -0.43700001 0 136 255 16.000000
4.11199999 -1.87700009 -0.43300003 0 136 255 16.000000
4.11100006 -1.88400006 -0.42800003 0 136 255 16.000000
4.10100031 -1.88800013 -0.42300001 0 127 255 15.000000
4.10500002 -1.89600015 -0.41800001 0 127 255 15.000000
4.10100031 -1.90200007 -0.41300002 0 102 255 12.000000
4.10300016 -1.91100013 -0.40800002 0 76 255 9.000000
4.09400034 -1.91400003 -0.40300003 0 42 255 5.000000
3.83200026 -2.33800006 -0.35500002 0 255 187 46.000000
3.82700014 -2.33500004 -0.36300001 0 255 8 88.000000
3.82900023 -2.33700013 -0.37300003 51 255 0 102.000000
3.82300019 -2.33400011 -0.38100001 34 255 0 98.000000
3.82700014 -2.33600020 -0.39100003 55 255 0 103.000000
3.82200027 -2.33400011 -0.40000001 34 255 0 98.000000
3.82100010 -2.33400011 -0.40900001 34 255 0 98.000000
3.82100010 -2.33400011 -0.41800001 25 255 0 96.000000
3.81300020 -2.33000016 -0.42600003 38 255 0 99.000000
3.81600022 -2.33300018 -0.43500003 25 255 0 96.000000
3.80700016 -2.32800007 -0.44300002 0 255 17 86.000000
3.80500007 -2.32700014 -0.45200002 0 255 93 68.000000
3.80400014 -2.32700014 -0.46100003 0 255 161 52.000000
3.80000019 -2.32500005 -0.46900001 0 255 182 47.000000
3.80000019 -2.32700014 -0.47800002 0 255 187 46.000000
3.80000019 -2.32700014 -0.48700002 0 255 187 46.000000
3.80000019 -2.32800007 -0.49600002 0 255 187 46.000000
3.79600024 -2.32600021 -0.50400001 0 255 170 50.000000
3.79300022 -2.32600021 -0.51300001 0 255 174 49.000000
3.79200029 -2.32500005 -0.52200001 0 255 174 49.000000
3.79400015 -2.32700014 -0.53100002 0 255 182 47.000000
3.79100013 -2.32700014 -0.53900003 0 255 170 50.000000
3.78900027 -2.32600021 -0.54800004 0 255 119 62.000000
3.79100013 -2.32800007 -0.55700004 0 255 34 82.000000
3.78600025 -2.32700014 -0.56500000 8 255 0 92.000000
3.78800011 -2.32800007 -0.57400000 38 255 0 99.000000
3.78900027 -2.33000016 -0.58300000 55 255 0 103.000000
3.78500009 -2.32900000 -0.59100002 38 255 0 99.000000
3.78700018 -2.33200002 -0.60000002 46 255 0 101.000000
3.78400016 -2.33100009 -0.60800004 55 255 0 103.000000
3.77500010 -2.32600021 -0.61500001 21 255 0 95.000000
3.77800012 -2.32900000 -0.62400001 110 255 0 116.000000
3.77500010 -2.32900000 -0.63200003 119 255 0 118.000000
3.77500010 -2.33000016 -0.64100003 110 255 0 116.000000
3.76900029 -2.32800007 -0.64800000 0 255 4 89.000000
3.76500010 -2.32700014 -0.65600002 0 255 102 66.000000
3.76000023 -2.32500005 -0.66400003 0 255 123 61.000000
3.75800014 -2.32500005 -0.67200005 0 255 123 61.000000
3.75700021 -2.32500005 -0.68000001 0 255 123 61.000000
3.75400019 -2.32500005 -0.68800002 0 255 119 62.000000
3.75600028 -2.32800007 -0.69700003 0 255 136 58.000000
3.75000024 -2.32500005 -0.70400006 0 255 136 58.000000
3.75000024 -2.32700014 -0.71200001 0 255 131 59.000000
3.74700022 -2.32600021 -0.72000003 0 255 127 60.000000
3.74700022 -2.32700014 -0.72800004 0 255 123 61.000000
3.75200009 -2.33200002 -0.73700005 0 255 153 54.000000
3.74300027 -2.32900000 -0.74400002 0 255 136 58.000000
3.74900007 -2.33400011 -0.75300002 0 255 55 77.000000
3.74500012 -2.33300018 -0.76000005 8 255 0 92.000000
3.74700022 -2.33500004 -0.76900005 46 255 0 101.000000
3.74700022 -2.33800006 -0.77700001 59 255 0 104.000000
3.74600029 -2.33800006 -0.78500003 59 255 0 104.000000
3.74300027 -2.33800006 -0.79200006 38 255 0 99.000000
3.73700023 -2.33500004 -0.79800004 17 255 0 94.000000
3.73400021 -2.33600020 -0.80600005 21 255 0 95.000000
3.73700023 -2.33900023 -0.81400001 38 255 0 99.000000
3.73500013 -2.34100008 -0.82200003 38 255 0 99.000000
3.72800016 -2.33800006 -0.82800007 8 255 0 92.000000
3.72900009 -2.34000015 -0.83600003 8 255 0 92.000000
3.72400022 -2.33900023 -0.84200007 0 255 29 83.000000
3.72100019 -2.33900023 -0.85000002 0 255 68 74.000000
3.71700025 -2.33900023 -0.85600007 0 255 110 64.000000
3.71100020 -2.33700013 -0.86300004 0 255 127 60.000000
3.71300006 -2.34000015 -0.87100005 0 255 131 59.000000
3.70900011 -2.33900023 -0.87700003 0 255 144 56.000000
3.70700026 -2.34000015 -0.88400006 0 255 144 56.000000
3.71000028 -2.34300017 -0.89300007 0 255 170 50.000000
3.70900011 -2.34500003 -0.90000004 0 255 165 51.000000
3.70600009 -2.34600019 -0.90700006 0 255 153 54.000000
3.70100021 -2.34400010 -0.91300005 0 255 136 58.000000
3.70300007 -2.34800005 -0.92100006 0 255 148 55.000000
3.70000029 -2.34900022 -0.92800003 0 255 165 51.000000
3.69900012 -2.34900022 -0.93400002 0 255 174 49.000000
3.69700027 -2.35000014 -0.94100004 0 255 242 33.000000
4.19099998 -1.66500008 -0.43500003 0 8 255 1.000000
4.12300014 -1.67100012 -0.93900007 0 17 255 2.000000
4.15500021 -1.68800008 -0.94400007 0 127 255 15.000000
4.14900017 -1.69100010 -0.93900007 0 255 250 31.000000
4.14600039 -1.69500005 -0.93600005 0 255 233 35.000000
4.14000034 -1.69800007 -0.93000007 0 229 255 27.000000
4.14100027 -1.70400012 -0.92700005 0 153 255 18.000000
4.13600016 -1.70600009 -0.92300004 0 102 255 12.000000
4.13700008 -1.71300006 -0.92000002 0 93 255 11.000000
4.14100027 -1.72000003 -0.91800004 0 85 255 10.000000
4.13500023 -1.72200012 -0.91300005 0 93 255 11.000000
4.13100004 -1.72500002 -0.90900004 0 93 255 11.000000
4.13400030 -1.73200011 -0.90600002 0 93 255 11.000000
4.13000011 -1.73600006 -0.90200007 0 93 255 11.000000
4.12500000 -1.73900008 -0.89700001 0 93 255 11.000000
4.12000036 -1.74300003 -0.89200002 0 102 255 12.000000
4.11800003 -1.74700010 -0.88800007 0 102 255 12.000000
4.11500025 -1.75100005 -0.88400006 0 102 255 12.000000
4.11100006 -1.75500011 -0.87900007 0 102 255 12.000000
4.11100006 -1.76000011 -0.87500006 0 110 255 13.000000
4.11000013 -1.76500010 -0.87000006 0 136 255 16.000000
4.10200024 -1.76800013 -0.86500007 0 255 238 34.000000
4.09700012 -1.77100003 -0.86000001 0 255 106 65.000000
4.09899998 -1.77800012 -0.85600007 0 255 46 79.000000
4.09100008 -1.78000009 -0.85100001 0 255 29 83.000000
4.09300041 -1.78600013 -0.84700006 0 255 42 80.000000
4.08900023 -1.78900003 -0.84200007 0 255 29 83.000000
4.09400034 -1.79600012 -0.83900005 0 255 42 80.000000
4.08700037 -1.79900014 -0.83300006 0 255 29 83.000000
4.08900023 -1.80600011 -0.82900006 0 255 102 66.000000
4.08500004 -1.80900013 -0.82400006 0 255 136 58.000000
4.08400011 -1.81500006 -0.82000005 0 255 199 43.000000
4.08500004 -1.82100010 -0.81600004 0 255 250 31.000000
4.07400036 -1.82100010 -0.80900002 0 178 255 21.000000
4.08000040 -1.82900012 -0.80500007 0 144 255 17.000000
4.07200003 -1.83200014 -0.79900002 0 136 255 16.000000
4.07400036 -1.83800006 -0.79400003 0 144 255 17.000000
4.07100010 -1.84200013 -0.78900003 0 144 255 17.000000
4.06400013 -1.84500003 -0.78300005 0 153 255 18.000000
4.06599998 -1.85100007 -0.77800006 0 255 255 30.000000
4.05500031 -1.85800004 -0.76600003 0 255 29 83.000000
4.05500031 -1.86400008 -0.76100004 0 255 21 85.000000
4.05200005 -1.86800003 -0.75600004 0 255 29 83.000000
4.05600023 -1.87500012 -0.75200003 0 255 0 90.000000
4.05000019 -1.87800014 -0.74500006 0 255 17 86.000000
4.04600000 -1.88100004 -0.74000001 0 255 17 86.000000
4.04900026 -1.88900006 -0.73500001 0 255 21 85.000000
4.04200029 -1.89100003 -0.72900003 0 255 21 85.000000
4.03800011 -1.89500010 -0.72300005 0 255 34 82.000000
4.03999996 -1.90200007 -0.71700001 0 255 51 78.000000
4.03700018 -1.90600014 -0.71100003 0 255 110 64.000000
4.03600025 -1.91100013 -0.70500004 0 255 174 49.000000
4.04200029 -1.91900015 -0.70100003 0 255 238 34.000000
4.03299999 -1.92000008 -0.69400001 0 212 255 25.000000
4.02800035 -1.92500007 -0.68800002 0 195 255 23.000000
4.02900028 -1.93100011 -0.68200004 0 204 255 24.000000
4.02600002 -1.93500006 -0.67600006 0 255 216 39.000000
4.02600002 -1.94000006 -0.67000002 0 255 102 66.000000
4.01900005 -1.94300008 -0.66400003 0 255 25 84.000000
4.01999998 -1.95000005 -0.65800005 0 255 17 86.000000
4.01900005 -1.95400012 -0.65200001 0 255 17 86.000000
4.01700020 -1.95900011 -0.64600003 0 255 17 86.000000
4.01700020 -1.96500015 -0.64000005 0 255 21 85.000000
4.01500034 -1.96900010 -0.63300002 0 255 17 86.000000
4.01100016 -1.97400010 -0.62600005 0 255 4 89.000000
4.01200008 -1.97900009 -0.62000000 0 255 17 86.000000
4.01000023 -1.98500013 -0.61400002 0 255 17 86.000000
4.00900030 -1.98900008 -0.60800004 0 255 29 83.000000
3.99900007 -1.99100006 -0.60000002 0 255 76 72.000000
3.99500012 -1.99400008 -0.59300005 0 255 157 53.000000
3.99100018 -1.99800014 -0.58600003 0 255 221 38.000000
3.99800014 -2.00700021 -0.58100003 0 255 250 31.000000
3.99600029 -2.01200008 -0.57500005 0 255 255 30.000000
3.99000025 -2.01400018 -0.56700003 0 255 238 34.000000
3.98500013 -2.01800013 -0.56000000 0 255 174 49.000000
3.99100018 -2.02600002 -0.55500001 0 255 59 76.000000
3.98800015 -2.03000021 -0.54800004 21 255 0 95.000000
3.98600030 -2.03600001 -0.54000002 17 255 0 94.000000
3.98500013 -2.04100013 -0.53400004 21 255 0 95.000000
3.98000026 -2.04299998 -0.52600002 29 255 0 97.000000
3.98000026 -2.04900002 -0.52000004 21 255 0 95.000000
3.97600007 -2.05200005 -0.51200002 34 255 0 98.000000
3.97700024 -2.05900002 -0.50600004 21 255 0 95.000000
3.97400022 -2.06400013 -0.49900001 29 255 0 97.000000
3.97600007 -2.06900001 -0.49200001 0 255 55 77.000000
3.96700025 -2.07100010 -0.48400003 0 255 127 60.000000
3.96300030 -2.07400012 -0.47700003 0 255 199 43.000000
3.96300030 -2.08000016 -0.47000003 0 255 225 37.000000
3.96400023 -2.08600020 -0.46400002 0 255 225 37.000000
3.96000028 -2.09000015 -0.45600003 0 255 229 36.000000
3.96400023 -2.09700012 -0.44900003 0 255 233 35.000000
3.95700026 -2.09900022 -0.44200003 0 255 225 37.000000
3.95900011 -2.10600019 -0.43400002 0 255 153 54.000000
3.95400023 -2.10900021 -0.42600003 0 255 21 85.000000
3.95700026 -2.11600018 -0.41900003 42 255 0 100.000000
3.95500016 -2.12100005 -0.41200003 42 255 0 100.000000
3.95500016 -2.12600017 -0.40500003 38 255 0 99.000000
3.95200014 -2.13000011 -0.39700001 29 255 0 97.000000
3.94600010 -2.13400006 -0.38900003 0 255 21 85.000000
3.95200014 -2.14100003 -0.38200003 0 255 131 59.000000
3.95500016 -2.14900017 -0.37600002 0 221 255 26.000000
4.03500032 -1.99300015 -0.39300001 0 25 255 3.000000
4.05400038 -1.99600005 -0.40200001 0 178 255 21.000000
4.05100012 -1.98900008 -0.40800002 0 255 161 52.000000
4.05000019 -1.98300004 -0.41500002 0 255 68 74.000000
4.04500008 -1.97400010 -0.42000002 0 255 8 88.000000
4.05299997 -1.97200012 -0.42800003 0 255 17 86.000000
4.05000019 -1.96600008 -0.43500003 0 255 4 89.000000
4.05100012 -1.96000004 -0.44200003 0 255 4 89.000000
4.05299997 -1.95500004 -0.44900003 0 255 4 89.000000
4.05800009 -1.95200014 -0.45600003 0 255 8 88.000000
4.05400038 -1.94400012 -0.46200001 0 255 8 88.000000
4.06300020 -1.94300008 -0.46900001 0 255 85 70.000000
4.06800032 -1.94000006 -0.47700003 0 255 225 37.000000
4.06500006 -1.93200004 -0.48300001 0 195 255 23.000000
4.06900024 -1.92900014 -0.49000001 0 195 255 23.000000
4.07200003 -1.92500007 -0.49700001 0 212 255 25.000000
4.07000017 -1.91800010 -0.50300002 0 255 204 42.000000
4.07700014 -1.91700006 -0.51000005 0 255 102 66.000000
4.07100010 -1.90800011 -0.51600003 0 255 29 83.000000
4.07800007 -1.90600014 -0.52300000 0 255 0 90.000000
4.07300043 -1.89800012 -0.53000003 0 255 8 88.000000
4.07900000 -1.89600015 -0.53700000 4 255 0 91.000000
4.08400011 -1.89400005 -0.54400003 12 255 0 93.000000
4.08599997 -1.88900006 -0.55100000 12 255 0 93.000000
4.07800007 -1.88100004 -0.55600005 0 255 17 86.000000
4.08800030 -1.88000011 -0.56400001 12 255 0 93.000000
4.08300018 -1.87200010 -0.57000005 0 255 21 85.000000
4.09000015 -1.87100005 -0.57700002 12 255 0 93.000000
4.09400034 -1.86700010 -0.58400005 0 255 0 90.000000
4.09700012 -1.86400008 -0.59100002 0 255 12 87.000000
4.08900023 -1.85600007 -0.59600002 0 255 85 70.000000
4.09400034 -1.85400009 -0.60300004 0 255 212 40.000000
4.10000038 -1.85200012 -0.61100000 0 255 229 36.000000
4.10100031 -1.84700012 -0.61700004 0 255 131 59.000000
4.09700012 -1.84100008 -0.62300003 0 255 55 77.000000
4.10200024 -1.83800006 -0.63000005 0 255 4 89.000000
4.10500002 -1.83500004 -0.63700002 0 255 4 89.000000
4.10400009 -1.83000004 -0.64400005 0 255 0 90.000000
4.10700035 -1.82700014 -0.65100002 0 255 0 90.000000
4.10200024 -1.82100010 -0.65600002 0 255 0 90.000000
4.10500002 -1.81700003 -0.66300005 0 255 4 89.000000
4.10900021 -1.81500006 -0.67000002 0 255 4 89.000000
4.10900021 -1.81000006 -0.67600006 0 255 4 89.000000
4.11100006 -1.80700004 -0.68200004 0 255 0 90.000000
4.11400032 -1.80400014 -0.68900001 0 255 12 87.000000
4.11199999 -1.80000007 -0.69500005 0 255 0 90.000000
4.11300039 -1.79600012 -0.70100003 0 255 17 86.000000
4.11500025 -1.79200006 -0.70800000 0 255 12 87.000000
4.11899996 -1.79100013 -0.71500003 0 255 55 77.000000
4.11899996 -1.78700006 -0.72100002 0 255 148 55.000000
4.11899996 -1.78300011 -0.72700006 0 255 250 31.000000
4.12400007 -1.78100014 -0.73400003 0 161 255 19.000000
4.12600040 -1.77800012 -0.74000001 0 144 255 17.000000
4.12500000 -1.77300012 -0.74600005 0 238 255 28.000000
4.13000011 -1.77200007 -0.75300002 0 255 170 50.000000
4.12600040 -1.76700008 -0.75900006 0 255 76 72.000000
4.12800026 -1.76400006 -0.76600003 0 255 17 86.000000
4.12400007 -1.75900006 -0.77100003 4 255 0 91.000000
4.12000036 -1.75400007 -0.77600002 0 255 17 86.000000
4.12300014 -1.75200009 -0.78300005 0 255 4 89.000000
4.13100004 -1.75100005 -0.79100001 0 255 4 89.000000
4.12700033 -1.74700010 -0.79600006 0 255 21 85.000000
4.12800026 -1.74400008 -0.80200005 0 255 17 86.000000
4.12900019 -1.74100006 -0.80800003 0 255 17 86.000000
4.13199997 -1.73900008 -0.81500006 0 255 8 88.000000
4.13100004 -1.73500013 -0.82000005 0 255 63 75.000000
4.13700008 -1.73400009 -0.82700002 0 255 157 53.000000
4.13900042 -1.73200011 -0.83300006 0 255 229 36.000000
4.13500023 -1.72700012 -0.83800006 0 170 255 20.000000
4.13900042 -1.72600007 -0.84500003 0 110 255 13.000000
4.14700031 -1.72700012 -0.85200006 0 110 255 13.000000
4.14200020 -1.72100008 -0.85700005 0 110 255 13.000000
4.14300013 -1.72000003 -0.86300004 0 93 255 11.000000
4.14400005 -1.71700013 -0.86900002 0 93 255 11.000000
4.14800024 -1.71600008 -0.87600005 0 93 255 11.000000
4.14400005 -1.71200013 -0.88100004 0 93 255 11.000000
4.14400005 -1.70900011 -0.88600004 0 93 255 11.000000
4.15000010 -1.70900011 -0.89300007 0 93 255 11.000000
4.14700031 -1.70500004 -0.89800006 0 85 255 10.000000
4.15000010 -1.70400012 -0.90400004 0 85 255 10.000000
4.14900017 -1.70100009 -0.90900004 0 85 255 10.000000
4.14900017 -1.69800007 -0.91500002 0 85 255 10.000000
4.14499998 -1.69500005 -0.92100006 0 85 255 10.000000
4.14700031 -1.69300008 -0.92700005 0 85 255 10.000000
4.15300035 -1.69300008 -0.93300003 0 136 255 16.000000
4.15200043 -1.69100010 -0.93800002 0 153 255 18.000000
4.15400028 -1.68900013 -0.94400007 0 127 255 15.000000
4.15900040 -1.69000006 -0.95100003 0 68 255 8.000000
3.91300011 -2.03700018 -0.98100007 0 255 246 32.000000
3.90500021 -2.03700018 -0.97300005 0 255 144 56.000000
3.90500021 -2.04000020 -0.96800005 0 255 59 76.000000
3.90900016 -2.04600000 -0.96300006 0 255 25 84.000000
3.91000009 -2.05000019 -0.95700002 0 255 25 84.000000
3.90000010 -2.04800010 -0.94900006 0 255 42 80.000000
3.89400029 -2.05000019 -0.94200003 0 255 21 85.000000
3.90200019 -2.05800009 -0.93800002 0 255 25 84.000000
3.89100027 -2.05599999 -0.93000007 0 255 21 85.000000
3.89900017 -2.06200004 -0.92500007 0 255 42 80.000000
3.89300013 -2.06400013 -0.91800004 0 255 21 85.000000
3.89100027 -2.06599998 -0.91100007 0 255 21 85.000000
3.89200020 -2.07100010 -0.90600002 0 255 21 85.000000
3.89000010 -2.07300019 -0.89900005 0 255 34 82.000000
3.88900018 -2.07600021 -0.89300007 0 255 93 68.000000
3.88700008 -2.08000016 -0.88600004 0 255 136 58.000000
3.88300014 -2.08100009 -0.87900007 0 255 195 44.000000
3.88200021 -2.08300018 -0.87200004 0 255 233 35.000000
3.88300014 -2.08700013 -0.86600006 0 255 238 34.000000
3.88300014 -2.09100008 -0.85900003 0 255 238 34.000000
3.87900019 -2.09300017 -0.85200006 0 255 238 34.000000
3.88000011 -2.09700012 -0.84600002 0 255 233 35.000000
3.88200021 -2.10100007 -0.83800006 0 255 216 39.000000
3.88000011 -2.10300016 -0.83100003 0 255 195 44.000000
3.87700009 -2.10600019 -0.82400006 0 255 148 55.000000
3.88300014 -2.11199999 -0.81900007 0 255 89 69.000000
3.88100028 -2.11500001 -0.81200004 0 255 38 81.000000
3.87500024 -2.11500001 -0.80300003 0 255 46 79.000000
3.88200021 -2.12300014 -0.79800004 0 255 8 88.000000
3.87600017 -2.12200022 -0.79000002 0 255 51 78.000000
3.87700009 -2.12600017 -0.78300005 0 255 106 65.000000
3.87100029 -2.12700009 -0.77500004 0 255 148 55.000000
3.87300014 -2.13100004 -0.76800001 0 255 195 44.000000
3.86500025 -2.13100004 -0.75900006 0 255 208 41.000000
3.87000012 -2.13700008 -0.75300002 0 255 195 44.000000
3.86600018 -2.13800001 -0.74500006 0 255 187 46.000000
3.86900020 -2.14300013 -0.73900002 0 255 195 44.000000
3.87100029 -2.14800000 -0.73200005 0 255 195 44.000000
3.86400008 -2.14700007 -0.72300005 0 255 187 46.000000
3.86600018 -2.15100002 -0.71600002 0 255 182 47.000000
3.86500025 -2.15400004 -0.70900005 0 255 182 47.000000
3.86600018 -2.15799999 -0.70100003 0 255 174 49.000000
3.86400008 -2.16000009 -0.69400001 0 255 174 49.000000
3.86200023 -2.16200018 -0.68600005 0 255 161 52.000000
3.86600018 -2.16700006 -0.67800003 0 255 144 56.000000
3.86300015 -2.16900015 -0.67000002 0 255 97 67.000000
3.86900020 -2.17500019 -0.66300005 0 255 42 80.000000
3.87100029 -2.18000007 -0.65600002 12 255 0 93.000000
3.87100029 -2.18300009 -0.64800000 12 255 0 93.000000
3.86800027 -2.18400002 -0.64000005 0 255 4 89.000000
3.87100029 -2.18900013 -0.63300002 0 255 21 85.000000
3.86600018 -2.18900013 -0.62400001 0 255 63 75.000000
3.85900021 -2.18900013 -0.61500001 0 255 110 64.000000
3.85900021 -2.19200015 -0.60700005 0 255 157 53.000000
3.85900021 -2.19500017 -0.59900004 0 255 161 52.000000
3.85900021 -2.19700003 -0.59200001 0 255 161 52.000000
3.85800028 -2.20000005 -0.58300000 0 255 165 51.000000
3.86200023 -2.20600009 -0.57600003 0 255 144 56.000000
3.85800028 -2.20700002 -0.56700003 0 255 93 68.000000
3.86500025 -2.21300006 -0.56000000 0 255 42 80.000000
3.86300015 -2.21500015 -0.55200005 4 255 0 91.000000
3.86200023 -2.21800017 -0.54400003 4 255 0 91.000000
3.85900021 -2.21800017 -0.53500003 0 255 17 86.000000
3.86600018 -2.22600007 -0.52800000 12 255 0 93.000000
3.86600018 -2.22800016 -0.51900005 12 255 0 93.000000
3.86700010 -2.23200011 -0.51100004 17 255 0 94.000000
3.86600018 -2.23500013 -0.50200003 17 255 0 94.000000
3.86700010 -2.23699999 -0.49300003 25 255 0 96.000000
3.86600018 -2.24000001 -0.48500001 25 255 0 96.000000
3.86500025 -2.24200010 -0.47700003 17 255 0 94.000000
3.86100030 -2.24300003 -0.46800002 0 255 46 79.000000
3.86000013 -2.24400020 -0.45900002 0 255 136 58.000000
3.85300016 -2.24400020 -0.44900003 0 255 161 52.000000
3.85200024 -2.24700022 -0.44100001 0 255 161 52.000000
3.85600019 -2.25100017 -0.43300003 0 255 170 50.000000
3.85500026 -2.25300002 -0.42400002 0 255 178 48.000000
3.85500026 -2.25600004 -0.41500002 0 255 178 48.000000
3.85800028 -2.25999999 -0.40700001 0 255 195 44.000000
3.85700011 -2.26200008 -0.39800003 0 255 208 41.000000
3.86100030 -2.26700020 -0.39000002 0 255 216 39.000000
3.86200023 -2.27000022 -0.38200003 0 255 216 39.000000
3.86200023 -2.27200007 -0.37300003 0 255 212 40.000000
3.86800027 -2.27900004 -0.36500001 0 246 255 29.000000
3.87500024 -2.28500009 -0.35700002 0 76 255 9.000000
3.94500017 -2.17500019 -0.37300003 0 246 255 29.000000
3.93600011 -2.16700006 -0.38200003 0 255 93 68.000000
3.93500018 -2.16300011 -0.39000002 34 255 0 98.000000
3.93600011 -2.15900016 -0.39800003 34 255 0 98.000000
3.93600011 -2.15600014 -0.40600002 34 255 0 98.000000
3.93800020 -2.15200019 -0.41500002 34 255 0 98.000000
3.93800020 -2.14900017 -0.42300001 34 255 0 98.000000
3.93800020 -2.14400005 -0.43100002 42 255 0 100.000000
3.94000030 -2.14200020 -0.43900001 34 255 0 98.000000
3.94100022 -2.13900018 -0.44800001 34 255 0 98.000000
3.94300008 -2.13600016 -0.45600003 29 255 0 97.000000
3.93900013 -2.13100004 -0.46300003 21 255 0 95.000000
3.93600011 -2.12200022 -0.47900003 0 255 136 58.000000
3.93900013 -2.12100005 -0.48800004 0 255 199 43.000000
3.93300009 -2.11400008 -0.49500003 0 255 212 40.000000
3.93600011 -2.11199999 -0.50300002 0 255 208 41.000000
3.94000030 -2.11100006 -0.51200002 0 255 165 51.000000
3.94200015 -2.10800004 -0.52000004 0 255 97 67.000000
3.94300008 -2.10500002 -0.52800000 0 255 25 84.000000
3.94000030 -2.10100007 -0.53600001 0 255 0 90.000000
3.94500017 -2.09900022 -0.54500002 21 255 0 95.000000
3.94900012 -2.09800005 -0.55400002 34 255 0 98.000000
3.94900012 -2.09500003 -0.56200004 34 255 0 98.000000
3.94500017 -2.09100008 -0.56900001 21 255 0 95.000000
3.94600010 -2.08800006 -0.57700002 0 255 21 85.000000
3.94300008 -2.08300018 -0.58400005 0 255 131 59.000000
3.94100022 -2.08000016 -0.59200001 0 255 191 45.000000
3.94100022 -2.07600021 -0.60000002 0 255 208 41.000000
3.94000030 -2.07400012 -0.60700005 0 255 212 40.000000
3.93900013 -2.07000017 -0.61500001 0 255 216 39.000000
3.94300008 -2.06800008 -0.62300003 0 255 221 38.000000
3.94400024 -2.06700015 -0.63100004 0 255 225 37.000000
3.94000030 -2.06100011 -0.63800001 0 255 221 38.000000
3.94100022 -2.05900002 -0.64600003 0 255 212 40.000000
3.94000030 -2.05500007 -0.65400004 0 255 216 39.000000
3.94400024 -2.05599999 -0.66200006 0 255 225 37.000000
3.94600010 -2.05300021 -0.67000002 0 255 221 38.000000
3.94000030 -2.04800010 -0.67600006 0 255 216 39.000000
3.95000029 -2.05000019 -0.68600005 0 255 148 55.000000
3.95200014 -2.04900002 -0.69400001 0 255 68 74.000000
3.94500017 -2.04299998 -0.70000005 0 255 8 88.000000
3.95300007 -2.04400015 -0.70900005 21 255 0 95.000000
3.94700027 -2.03900003 -0.71600002 21 255 0 95.000000
3.95100021 -2.03900003 -0.72400004 34 255 0 98.000000
3.95000029 -2.03600001 -0.73100001 34 255 0 98.000000
3.94900012 -2.03299999 -0.73900002 12 255 0 93.000000
3.95100021 -2.03100014 -0.74800003 0 255 0 90.000000
3.95400023 -2.03000021 -0.75500005 0 255 55 77.000000
3.94400024 -2.02400017 -0.76100004 0 255 119 62.000000
3.94700027 -2.02300000 -0.76900005 0 255 170 50.000000
3.95000029 -2.02300000 -0.77700001 0 255 208 41.000000
3.94700027 -2.01900005 -0.78400004 0 255 221 38.000000
3.94700027 -2.01700020 -0.79100001 0 255 153 54.000000
3.95100021 -2.01700020 -0.80000001 0 255 55 77.000000
3.94900012 -2.01300001 -0.80600005 21 255 0 95.000000
3.95000029 -2.01300001 -0.81400001 17 255 0 94.000000
3.94700027 -2.00900006 -0.82100004 29 255 0 97.000000
3.94800019 -2.00700021 -0.82800007 21 255 0 95.000000
3.95000029 -2.00600004 -0.83500004 21 255 0 95.000000
3.95300007 -2.00700021 -0.84300005 0 255 12 87.000000
3.94900012 -2.00200009 -0.85000002 21 255 0 95.000000
3.94800019 -2.00100017 -0.85600007 17 255 0 94.000000
3.94600010 -1.99900007 -0.86300004 17 255 0 94.000000
3.94600010 -1.99700010 -0.87000006 17 255 0 94.000000
3.95200014 -1.99800014 -0.87800002 0 255 4 89.000000
3.95000029 -1.99500012 -0.88500005 0 255 12 87.000000
3.94800019 -1.99300015 -0.89200002 0 255 93 68.000000
3.94800019 -1.99100006 -0.89800006 0 255 199 43.000000
3.95100021 -1.99200010 -0.90600002 0 255 255 30.000000
3.94500017 -1.98700011 -0.91200006 0 212 255 25.000000
3.94700027 -1.98800004 -0.91900003 0 221 255 26.000000
3.94600010 -1.98500013 -0.92600006 0 212 255 25.000000
3.94700027 -1.98400009 -0.93300003 0 204 255 24.000000
3.94300008 -1.98100007 -0.93900007 0 204 255 24.000000
3.94300008 -1.98000014 -0.94500005 0 204 255 24.000000
3.94400024 -1.97900009 -0.95300007 0 204 255 24.000000
3.94500017 -1.97900009 -0.95900005 0 204 255 24.000000
3.94400024 -1.97700012 -0.96600002 0 195 255 23.000000
3.94600010 -1.97700012 -0.97300005 0 195 255 23.000000
3.93900013 -1.97300005 -0.97800004 0 161 255 19.000000
3.94600010 -1.97500014 -0.98600006 0 110 255 13.000000
3.93400025 -1.96800005 -0.98900002 0 42 255 5.000000
3.71500015 -2.31800008 -0.94200003 0 255 225 37.000000
3.71800017 -2.32100010 -0.93600005 0 255 187 46.000000
3.71900010 -2.32200003 -0.92900002 0 255 187 46.000000
3.71700025 -2.32300019 -0.92100006 0 255 174 49.000000
3.71900010 -2.32400012 -0.91400003 0 255 174 49.000000
3.71900010 -2.32600021 -0.90700006 0 255 174 49.000000
3.72000027 -2.32800007 -0.90000004 0 255 174 49.000000
3.71800017 -2.32900000 -0.89300007 0 255 170 50.000000
3.72100019 -2.33100009 -0.88600004 0 255 153 54.000000
3.71700025 -2.33000016 -0.87700003 0 255 140 57.000000
3.71600008 -2.33000016 -0.87000006 0 255 144 56.000000
3.71400023 -2.32900000 -0.86200005 0 255 144 56.000000
3.71700025 -2.33200002 -0.85500002 0 255 123 61.000000
3.72600007 -2.33800006 -0.85000002 0 255 80 71.000000
3.72800016 -2.34000015 -0.84200007 0 255 46 79.000000
3.73100019 -2.34300017 -0.83600003 0 255 25 84.000000
3.73100019 -2.34400010 -0.82800007 38 255 0 99.000000
3.73000026 -2.34400010 -0.82000005 51 255 0 102.000000
3.72900009 -2.34500003 -0.81200004 93 255 0 112.000000
3.72800016 -2.34400010 -0.80400002 76 255 0 108.000000
3.72800016 -2.34500003 -0.79600006 29 255 0 97.000000
3.73200011 -2.34800005 -0.78900003 17 255 0 94.000000
3.73000026 -2.34700012 -0.78100002 0 255 0 90.000000
3.73400021 -2.35100007 -0.77400005 0 255 0 90.000000
3.73400021 -2.35200000 -0.76600003 17 255 0 94.000000
3.73300028 -2.35100007 -0.75700003 0 255 25 84.000000
3.73300028 -2.35200000 -0.74900001 0 255 102 66.000000
3.73100019 -2.35100007 -0.74100006 0 255 182 47.000000
3.73100019 -2.35200000 -0.73300004 0 255 191 45.000000
3.73200011 -2.35200000 -0.72500002 0 255 191 45.000000
3.73300028 -2.35400009 -0.71700001 0 255 123 61.000000
3.73600006 -2.35700011 -0.71000004 0 255 229 36.000000
3.73700023 -2.35700011 -0.70200002 0 255 250 31.000000
3.74500012 -2.36300015 -0.69500005 0 229 255 27.000000
3.75300026 -2.36800003 -0.68800002 0 170 255 20.000000
3.74900007 -2.36500001 -0.67900002 0 136 255 16.000000
3.75300026 -2.36800003 -0.67100000 0 110 255 13.000000
3.75600028 -2.37000012 -0.66200006 0 76 255 9.000000
3.75600028 -2.37100005 -0.64500004 0 51 255 6.000000
3.73500013 -2.35700011 -0.63400000 0 25 255 3.000000
4.21500015 -1.67300010 -0.43600002 0 8 255 1.000000
4.19800043 -1.68200004 -0.42900002 0 17 255 2.000000
3.86300015 -2.29500008 -0.35900003 0 255 225 37.000000
3.85100007 -2.28800011 -0.36700001 0 255 59 76.000000
3.85200024 -2.28700018 -0.37600002 17 255 0 94.000000
3.85500026 -2.28800011 -0.38500002 12 255 0 93.000000
3.84900022 -2.28299999 -0.39400002 0 255 17 86.000000
3.85100007 -2.28400016 -0.40300003 0 255 29 83.000000
3.84400010 -2.27900004 -0.41100001 0 255 59 76.000000
3.84400010 -2.27900004 -0.42100003 0 255 85 70.000000
3.84500027 -2.27800012 -0.43000001 0 255 119 62.000000
3.84400010 -2.27700019 -0.43800002 0 255 136 58.000000
3.84600019 -2.27700019 -0.44800001 0 255 136 58.000000
3.83900023 -2.27200007 -0.45500001 0 255 102 66.000000
3.84200025 -2.27300000 -0.46500003 0 255 46 79.000000
3.84800029 -2.27600002 -0.47500002 25 255 0 96.000000
3.84500027 -2.27300000 -0.48300001 25 255 0 96.000000
3.84700012 -2.27400017 -0.49200001 25 255 0 96.000000
3.84100008 -2.27000022 -0.50000000 46 255 0 101.000000
3.84200025 -2.27100015 -0.50900000 17 255 0 94.000000
3.84400010 -2.27000022 -0.51800001 34 255 0 98.000000
3.84200025 -2.26800013 -0.52700001 25 255 0 96.000000
3.83500028 -2.26400018 -0.53500003 46 255 0 101.000000
3.83600020 -2.26500010 -0.54300004 46 255 0 101.000000
3.83700013 -2.26500010 -0.55200005 0 255 4 89.000000
3.83000016 -2.26100016 -0.56000000 0 255 76 72.000000
3.82300019 -2.25600004 -0.56800002 0 255 110 64.000000
3.82200027 -2.25500011 -0.57600003 0 255 110 64.000000
3.82100010 -2.25500011 -0.58500004 0 255 123 61.000000
3.81800008 -2.25200009 -0.59300005 0 255 136 58.000000
3.82500029 -2.25600004 -0.60200006 0 255 161 52.000000
3.82000017 -2.25400019 -0.61000001 0 255 174 49.000000
3.82000017 -2.25300002 -0.61900002 0 255 174 49.000000
3.81800008 -2.25200009 -0.62700003 0 255 174 49.000000
3.81700015 -2.25100017 -0.63500005 0 255 165 51.000000
3.81700015 -2.25200009 -0.64400005 0 255 161 52.000000
3.81800008 -2.25200009 -0.65200001 0 255 157 53.000000
3.81900024 -2.25100017 -0.66100001 0 255 76 72.000000
3.81600022 -2.25000000 -0.66900003 0 255 4 89.000000
3.81700015 -2.25100017 -0.67700005 29 255 0 97.000000
3.81500030 -2.25000000 -0.68600005 29 255 0 97.000000
3.81600022 -2.25000000 -0.69400001 25 255 0 96.000000
3.82100010 -2.25400019 -0.70300001 17 255 0 94.000000
3.80900025 -2.24700022 -0.70900005 4 255 0 91.000000
3.81400013 -2.24900007 -0.71800005 59 255 0 104.000000
3.81300020 -2.24900007 -0.72600001 76 255 0 108.000000
3.81300020 -2.24900007 -0.73400003 68 255 0 106.000000
3.80600023 -2.24600005 -0.74100006 38 255 0 99.000000
3.81100011 -2.25000000 -0.75100005 0 255 4 89.000000
3.80900025 -2.24800014 -0.75800002 0 255 59 76.000000
3.80100012 -2.24400020 -0.76500005 0 255 106 65.000000
3.79200029 -2.24000001 -0.77100003 0 255 131 59.000000
3.79200029 -2.24000001 -0.77900004 0 255 136 58.000000
3.79100013 -2.23900008 -0.78600001 0 255 136 58.000000
3.78800011 -2.23800015 -0.79400003 0 255 131 59.000000
3.78800011 -2.23900008 -0.80200005 0 255 136 58.000000
3.78600025 -2.23800015 -0.80900002 0 255 136 58.000000
3.79000020 -2.24000001 -0.81800002 0 255 119 62.000000
3.78200006 -2.23699999 -0.82400006 0 255 140 57.000000
3.78600025 -2.23900008 -0.83300006 0 255 153 54.000000
3.77900028 -2.23699999 -0.83900005 0 255 140 57.000000
3.78000021 -2.23699999 -0.84700006 0 255 161 52.000000
3.78100014 -2.23900008 -0.85500002 0 255 119 62.000000
3.78700018 -2.24300003 -0.86400002 0 255 76 72.000000
3.78300023 -2.24200010 -0.87100005 0 255 29 83.000000
3.78700018 -2.24500012 -0.87900007 0 255 4 89.000000
3.78400016 -2.24400020 -0.88700002 4 255 0 91.000000
3.78600025 -2.24700022 -0.89400005 12 255 0 93.000000
3.78700018 -2.24700022 -0.90200007 0 255 0 90.000000
3.77700019 -2.24300003 -0.90700006 0 255 21 85.000000
3.77500010 -2.24300003 -0.91400003 0 255 21 85.000000
3.77400017 -2.24200010 -0.92100006 0 255 21 85.000000
3.77200007 -2.24200010 -0.92800003 0 255 21 85.000000
3.77900028 -2.24800014 -0.93800002 0 255 8 88.000000
3.77500010 -2.24700022 -0.94400007 0 255 21 85.000000
3.77000022 -2.24500012 -0.95000005 0 255 51 78.000000
3.77400017 -2.24700022 -0.95800006 0 255 174 49.000000
4.18600035 -1.68600011 -0.77600002 0 170 255 20.000000
4.18200016 -1.69000006 -0.77200001 0 255 144 56.000000
4.17100000 -1.69200003 -0.76600003 0 255 38 81.000000
4.16600037 -1.69600010 -0.76200002 0 255 34 82.000000
4.17000008 -1.70400012 -0.75800002 0 255 34 82.000000
4.16400003 -1.70700014 -0.75400001 0 255 38 81.000000
4.16400003 -1.71300006 -0.75000006 0 255 34 82.000000
4.16100025 -1.71800005 -0.74600005 0 255 38 81.000000
4.15400028 -1.72100008 -0.74100006 0 255 68 74.000000
4.15100002 -1.72600007 -0.73700005 0 255 89 69.000000
4.15500021 -1.73400009 -0.73400003 0 255 157 53.000000
4.15600014 -1.74000013 -0.73000002 0 255 199 43.000000
4.15300035 -1.74500012 -0.72600001 0 255 233 35.000000
4.15000010 -1.75000012 -0.72200006 0 204 255 24.000000
4.14100027 -1.75300014 -0.71600002 0 127 255 15.000000
4.14600039 -1.76100004 -0.71300006 0 119 255 14.000000
4.13500023 -1.76300013 -0.70700002 0 187 255 22.000000
4.13900042 -1.77100003 -0.70300001 0 255 174 49.000000
4.12700033 -1.77300012 -0.69700003 0 255 46 79.000000
4.12500000 -1.77700007 -0.69200003 0 255 25 84.000000
4.12300014 -1.78300011 -0.68800002 0 255 17 86.000000
4.12200022 -1.78900003 -0.68300003 0 255 17 86.000000
4.12100029 -1.79400003 -0.67900002 0 255 17 86.000000
4.11600018 -1.80000007 -0.67400002 0 255 17 86.000000
4.11500025 -1.80400014 -0.66900003 0 255 17 86.000000
4.11199999 -1.81000006 -0.66400003 0 255 25 84.000000
4.11000013 -1.81600010 -0.66000003 0 255 25 84.000000
4.10600042 -1.82000005 -0.65400004 0 255 12 87.000000
4.10400009 -1.82600009 -0.64900005 0 255 12 87.000000
4.10200024 -1.83200014 -0.64400005 0 255 4 89.000000
4.10000038 -1.83700013 -0.63800001 0 255 4 89.000000
4.10000038 -1.84300005 -0.63400000 0 255 12 87.000000
4.09100008 -1.84600008 -0.62800002 0 255 72 73.000000
4.09500027 -1.85400009 -0.62300003 0 255 212 40.000000
4.09100008 -1.85800004 -0.61800003 0 255 246 32.000000
4.09200001 -1.86500013 -0.61300004 0 255 174 49.000000
4.08700037 -1.87000012 -0.60800004 0 255 102 66.000000
4.08200026 -1.87400007 -0.60200006 0 255 46 79.000000
4.07400036 -1.87700009 -0.59600002 0 255 17 86.000000
4.07400036 -1.88400006 -0.59100002 0 255 21 85.000000
4.07600021 -1.89100003 -0.58600003 4 255 0 91.000000
4.06700039 -1.89300013 -0.57900006 0 255 4 89.000000
4.06500006 -1.89900005 -0.57300001 0 255 4 89.000000
4.06200027 -1.90400004 -0.56700003 4 255 0 91.000000
4.06200027 -1.91100013 -0.56200004 0 255 8 88.000000
4.06200027 -1.91700006 -0.55700004 0 255 8 88.000000
4.05600023 -1.92100012 -0.55100000 0 255 4 89.000000
4.05400038 -1.92700005 -0.54500002 4 255 0 91.000000
4.05600023 -1.93400013 -0.54000002 0 255 72 73.000000
4.04900026 -1.93800008 -0.53300005 0 255 229 36.000000
4.05299997 -1.94600010 -0.52800000 0 221 255 26.000000
4.04500008 -1.94800007 -0.52200001 0 212 255 25.000000
4.04800034 -1.95600009 -0.51700002 0 229 255 27.000000
4.04300022 -1.96000004 -0.51000005 0 246 255 29.000000
4.03700018 -1.96500015 -0.50400001 0 255 212 40.000000
4.03200006 -1.96900010 -0.49700001 0 255 153 54.000000
4.03700018 -1.97700012 -0.49200001 0 255 51 78.000000
4.03100014 -1.98200011 -0.48500001 0 255 21 85.000000
4.03299999 -1.98900008 -0.48000002 0 255 4 89.000000
4.02500010 -1.99300015 -0.47300002 0 255 17 86.000000
4.02800035 -2.00000000 -0.46700001 4 255 0 91.000000
4.01400042 -2.00000000 -0.46000001 21 255 0 95.000000
4.02400017 -2.01100016 -0.45500001 4 255 0 91.000000
4.01800013 -2.01500010 -0.44800001 0 255 17 86.000000
4.01500034 -2.01999998 -0.44200003 0 255 127 60.000000
4.01600027 -2.02700019 -0.43600002 0 255 255 30.000000
4.01000023 -2.03100014 -0.42900002 0 212 255 25.000000
4.00800037 -2.03600001 -0.42200002 0 195 255 23.000000
4.00699997 -2.04200006 -0.41500002 0 178 255 21.000000
4.00200033 -2.04700017 -0.40800002 0 161 255 19.000000
4.00300026 -2.05300021 -0.40200001 0 144 255 17.000000
4.01300001 -2.06500006 -0.39700001 0 102 255 12.000000
3.99400020 -2.06300020 -0.38900003 0 42 255 5.000000
4.11199999 -1.89800012 -0.40500003 0 17 255 2.000000
4.10900021 -1.89000010 -0.41000003 0 51 255 6.000000
4.11899996 -1.88700008 -0.41700003 0 93 255 11.000000
4.11500025 -1.87900007 -0.42300001 0 119 255 14.000000
4.12000036 -1.87600005 -0.42900002 0 127 255 15.000000
4.12100029 -1.87000012 -0.43500003 0 127 255 15.000000
4.12000036 -1.86300004 -0.44100001 0 119 255 14.000000
4.12400007 -1.85900009 -0.44700003 0 170 255 20.000000
4.12700033 -1.85400009 -0.45300001 0 255 153 54.000000
4.12700033 -1.84800005 -0.45900002 0 255 25 84.000000
4.13000011 -1.84300005 -0.46500003 0 255 17 86.000000
4.13100004 -1.83700013 -0.47100002 0 255 17 86.000000
4.13000011 -1.83000004 -0.47700003 0 255 17 86.000000
4.13199997 -1.82600009 -0.48300001 0 255 17 86.000000
4.13900042 -1.82200015 -0.49000001 0 255 4 89.000000
4.13800001 -1.81600010 -0.49600002 0 255 17 86.000000
4.13900042 -1.81000006 -0.50200003 0 255 17 86.000000
4.14200020 -1.80600011 -0.50800002 0 255 25 84.000000
4.14900017 -1.80400014 -0.51500005 0 255 80 71.000000
4.15300035 -1.79300010 -0.52600002 0 246 255 29.000000
4.15300035 -1.78800011 -0.53200001 0 144 255 17.000000
4.15500021 -1.78300011 -0.53800005 0 119 255 14.000000
4.16400003 -1.78100014 -0.54500002 0 119 255 14.000000
4.16600037 -1.77700007 -0.55100000 0 144 255 17.000000
4.17300034 -1.77400005 -0.55800003 0 255 208 41.000000
4.16400003 -1.76500010 -0.56200004 0 255 68 74.000000
4.16400003 -1.76000011 -0.56900001 0 255 4 89.000000
4.16400003 -1.75400007 -0.57500005 0 255 21 85.000000
4.16700029 -1.75000012 -0.58100003 0 255 8 88.000000
4.16800022 -1.74600005 -0.58700001 0 255 8 88.000000
4.17600012 -1.74400008 -0.59400004 0 255 25 84.000000
4.17100000 -1.73600006 -0.59800005 0 255 8 88.000000
4.17100000 -1.73200011 -0.60400003 0 255 8 88.000000
4.17799997 -1.72900009 -0.61100000 0 255 34 82.000000
4.18000031 -1.72600007 -0.61700004 0 255 25 84.000000
4.18300009 -1.72200012 -0.62300003 0 255 51 78.000000
4.19200039 -1.72000003 -0.63000005 0 255 153 54.000000
4.19400024 -1.71700013 -0.63600004 0 255 233 35.000000
4.19300032 -1.71200013 -0.64100003 0 153 255 18.000000
4.18900013 -1.70500004 -0.64600003 0 93 255 11.000000
4.19700003 -1.70400012 -0.65300006 0 76 255 9.000000
4.19800043 -1.69900012 -0.65900004 0 76 255 9.000000
4.19800043 -1.69500005 -0.66500002 0 76 255 9.000000
4.20200014 -1.69200003 -0.67100000 0 51 255 6.000000
4.00200033 -1.87500012 -1.00000000 0 255 119 62.000000
4.00200033 -1.88000011 -0.99600005 0 255 68 74.000000
3.99600029 -1.88200009 -0.99000007 0 255 68 74.000000
3.99500012 -1.88600004 -0.98500007 0 255 63 75.000000
3.99400020 -1.89000010 -0.98000002 0 255 63 75.000000
3.99600029 -1.89600015 -0.97600007 0 255 55 77.000000
3.98900008 -1.89700007 -0.97000003 0 255 46 79.000000
3.99000025 -1.90100014 -0.96400005 0 255 51 78.000000
3.99000025 -1.90600014 -0.96000004 0 255 34 82.000000
3.98800015 -1.91000009 -0.95400006 0 255 51 78.000000
3.98600030 -1.91300011 -0.94900006 0 255 46 79.000000
3.99000025 -1.91900015 -0.94500005 0 255 29 83.000000
3.98200011 -1.92000008 -0.93800002 0 255 34 82.000000
3.98200011 -1.92500007 -0.93300003 0 255 42 80.000000
3.98100019 -1.92900014 -0.92800003 0 255 42 80.000000
3.98200011 -1.93400013 -0.92300004 0 255 80 71.000000
3.98100019 -1.93800008 -0.91800004 0 255 174 49.000000
3.98300028 -1.94400012 -0.91300005 0 255 246 32.000000
3.98100019 -1.94700015 -0.90700006 0 255 229 36.000000
3.97700024 -1.94900012 -0.90100002 0 255 178 48.000000
3.97200012 -1.95200014 -0.89500004 0 255 110 64.000000
3.97600007 -1.95800006 -0.89000005 0 255 46 79.000000
3.97100019 -1.96000004 -0.88400006 0 255 29 83.000000
3.97000027 -1.96400011 -0.87800002 0 255 29 83.000000
3.97100019 -1.97000015 -0.87200004 0 255 21 85.000000
3.96800017 -1.97200012 -0.86600006 0 255 29 83.000000
3.96800017 -1.97700012 -0.86000001 0 255 29 83.000000
3.96300030 -1.98000014 -0.85300004 0 255 38 81.000000
3.96700025 -1.98500013 -0.84800005 0 255 29 83.000000
3.96600008 -1.98900008 -0.84200007 0 255 29 83.000000
3.96500015 -1.99300015 -0.83600003 0 255 25 84.000000
3.96300030 -1.99700010 -0.83000004 0 255 25 84.000000
3.95700026 -1.99900007 -0.82300001 0 255 25 84.000000
3.95900011 -2.00400019 -0.81700003 0 255 12 87.000000
3.95600009 -2.00700021 -0.81100005 0 255 25 84.000000
3.95300007 -2.00999999 -0.80400002 0 255 55 77.000000
3.94900012 -2.01200008 -0.79700005 0 255 119 62.000000
3.94200015 -2.01400018 -0.78900003 0 255 187 46.000000
3.94700027 -2.01999998 -0.78400004 0 255 182 47.000000
3.95400023 -2.02900004 -0.78000003 0 255 93 68.000000
3.94300008 -2.02800012 -0.77100003 0 255 21 85.000000
3.94200015 -2.03200006 -0.76400006 0 255 21 85.000000
3.93900013 -2.03900003 -0.75000006 0 255 12 87.000000
3.93900013 -2.04400015 -0.74400002 0 255 12 87.000000
3.93800020 -2.04800010 -0.73700005 0 255 12 87.000000
3.94500017 -2.05500007 -0.73200005 17 255 0 94.000000
3.93700027 -2.05599999 -0.72300005 0 255 12 87.000000
3.93400025 -2.05900002 -0.71600002 0 255 8 88.000000
3.93300009 -2.06300020 -0.71000004 0 255 8 88.000000
3.93800020 -2.06900001 -0.70400006 8 255 0 92.000000
3.92300010 -2.06599998 -0.69400001 0 255 51 78.000000
3.92600012 -2.07200003 -0.68800002 0 255 114 63.000000
3.92900014 -2.07700014 -0.68100005 0 255 161 52.000000
3.92200017 -2.07900000 -0.67300004 0 255 216 39.000000
3.92200017 -2.08200002 -0.66600001 0 255 216 39.000000
3.92300010 -2.08700013 -0.66000003 0 255 212 40.000000
3.91900015 -2.09000015 -0.65200001 0 255 212 40.000000
3.92000008 -2.09500003 -0.64500004 0 255 212 40.000000
3.91700029 -2.09700012 -0.63700002 0 255 204 42.000000
3.91600013 -2.10100007 -0.62900001 0 255 165 51.000000
3.91900015 -2.10800004 -0.62200004 0 255 93 68.000000
3.91700029 -2.11100006 -0.61500001 0 255 29 83.000000
3.92000008 -2.11600018 -0.60800004 4 255 0 91.000000
3.91600013 -2.11800003 -0.60000002 0 255 0 90.000000
3.92000008 -2.12500000 -0.59300005 0 255 0 90.000000
3.91400027 -2.12600017 -0.58500004 0 255 34 82.000000
3.91300011 -2.13000011 -0.57800001 0 255 123 61.000000
3.90500021 -2.13000011 -0.56900001 0 255 174 49.000000
3.90700030 -2.13499999 -0.56200004 0 255 191 45.000000
3.90700030 -2.13900018 -0.55400002 0 255 182 47.000000
3.90600014 -2.14300013 -0.54700005 0 255 182 47.000000
3.90300012 -2.14500022 -0.53900003 0 255 187 46.000000
3.90400028 -2.15000010 -0.53100002 0 255 191 45.000000
3.90300012 -2.15400004 -0.52300000 0 255 191 45.000000
3.90700030 -2.15900016 -0.51600003 0 255 182 47.000000
3.90200019 -2.16100001 -0.50800002 0 255 182 47.000000
3.90000010 -2.16400003 -0.50000000 0 255 191 45.000000
3.89800024 -2.16800022 -0.49100003 0 255 187 46.000000
3.89900017 -2.17200017 -0.48300001 0 255 182 47.000000
3.90000010 -2.17600012 -0.47500002 0 255 131 59.000000
3.89900017 -2.17900014 -0.46700001 0 255 68 74.000000
3.90300012 -2.18600011 -0.46000001 0 255 8 88.000000
3.90700030 -2.19200015 -0.45200002 0 255 68 74.000000
3.90000010 -2.19200015 -0.44300002 0 255 144 56.000000
3.89300013 -2.19200015 -0.43500003 0 255 191 45.000000
3.89700007 -2.19800019 -0.42700002 0 255 195 44.000000
3.89300013 -2.20100021 -0.41800001 0 255 195 44.000000
3.89300013 -2.20500016 -0.41000003 0 255 199 43.000000
3.89400029 -2.20900011 -0.40200001 0 255 195 44.000000
3.89200020 -2.21200013 -0.39400002 0 255 208 41.000000
