ply
format ascii 1.0
comment Created by CloudCompare v2.11.1 (Anoia)
comment Created 2021/4/6 上午11:01
obj_info Generated by CloudCompare!
element vertex 1430
property float x
property float y
property float z
property uchar red
property uchar green
property uchar blue
property float scalar_intensity
end_header
2.575 -0.084 -0.058 0 255 212 40 
2.57 -0.088 -0.061 0 255 204 42 
2.573 -0.093 -0.064 0 255 212 40 
2.578 -0.097 -0.067 0 255 199 43 
2.578 -0.102 -0.07 0 255 208 41 
2.569 -0.048 -0.071 0 255 178 48 
2.567 -0.046 -0.066 0 255 178 48 
2.565 -0.044 -0.061 0 255 165 51 
2.571 -0.042 -0.056 0 255 170 50 
2.566 -0.04 -0.051 0 255 174 49 
2.568 -0.038 -0.046 0 255 178 48 
2.568 -0.036 -0.04 0 255 178 48 
2.569 -0.034 -0.035 0 255 174 49 
2.568 -0.033 -0.03 0 255 178 48 
2.568 -0.031 -0.025 0 255 170 50 
2.57 -0.029 -0.02 0 255 178 48 
2.569 -0.027 -0.015 0 255 182 47 
2.57 -0.025 -0.01 0 255 178 48 
2.57 -0.024 -0.004 0 255 178 48 
2.575 -0.022 0 0 255 195 44 
2.576 -0.02 0.005 0 255 191 45 
2.57 -0.018 0.01 0 255 182 47 
2.575 -0.017 0.015 0 255 195 44 
2.575 -0.015 0.021 0 255 187 46 
2.58 -0.013 0.026 0 255 136 58 
2.584 -0.012 0.031 0 255 80 71 
2.582 -0.05 0.031 0 255 110 64 
2.584 -0.048 0.026 0 255 170 50 
2.58 -0.047 0.021 0 255 208 41 
2.577 -0.045 0.016 0 255 212 40 
2.58 -0.043 0.01 0 255 208 41 
2.579 -0.041 0.005 0 255 204 42 
2.576 -0.04 0 0 255 212 40 
2.575 -0.038 -0.004 0 255 195 44 
2.573 -0.036 -0.009 0 255 191 45 
2.575 -0.034 -0.014 0 255 195 44 
2.573 -0.032 -0.02 0 255 191 45 
2.569 -0.03 -0.025 0 255 182 47 
2.569 -0.028 -0.03 0 255 182 47 
2.572 -0.026 -0.035 0 255 174 49 
2.57 -0.025 -0.04 0 255 178 48 
2.568 -0.023 -0.045 0 255 178 48 
2.568 -0.021 -0.05 0 255 178 48 
2.565 -0.019 -0.055 0 255 170 50 
2.566 -0.017 -0.06 0 255 165 51 
2.566 -0.015 -0.066 0 255 174 49 
2.568 -0.013 -0.071 0 255 174 49 
2.579 -0.009 -0.037 0 255 204 42 
2.575 -0.014 -0.034 0 255 195 44 
2.575 -0.019 -0.031 0 255 195 44 
2.58 -0.024 -0.028 0 255 208 41 
2.577 -0.028 -0.025 0 255 212 40 
2.58 -0.033 -0.023 0 255 208 41 
2.577 -0.038 -0.02 0 255 212 40 
2.58 -0.043 -0.017 0 255 199 43 
2.576 -0.048 -0.014 0 255 212 40 
2.576 -0.052 -0.012 0 255 212 40 
2.576 -0.057 -0.009 0 255 212 40 
2.576 -0.062 -0.006 0 255 212 40 
2.579 -0.067 -0.003 0 255 221 38 
2.579 -0.072 -0.001 0 255 221 38 
2.579 -0.077 0.001 0 255 221 38 
2.578 -0.081 0.004 0 255 225 37 
2.58 -0.086 0.006 0 255 229 36 
2.58 -0.091 0.009 0 255 229 36 
2.579 -0.096 0.011 0 255 229 36 
2.588 -0.101 0.014 0 255 208 41 
2.593 -0.106 0.017 0 255 182 47 
2.587 -0.107 -0.034 0 255 182 47 
2.579 -0.101 -0.034 0 255 204 42 
2.58 -0.095 -0.033 0 255 204 42 
2.58 -0.09 -0.032 0 255 204 42 
2.583 -0.085 -0.032 0 255 199 43 
2.574 -0.079 -0.031 0 255 212 40 
2.582 -0.074 -0.03 0 255 212 40 
2.579 -0.068 -0.03 0 255 199 43 
2.577 -0.063 -0.029 0 255 212 40 
2.58 -0.057 -0.028 0 255 199 43 
2.58 -0.052 -0.027 0 255 208 41 
2.58 -0.046 -0.026 0 255 208 41 
2.58 -0.041 -0.026 0 255 208 41 
2.575 -0.035 -0.025 0 255 195 44 
2.575 -0.03 -0.024 0 255 195 44 
2.579 -0.025 -0.023 0 255 204 42 
2.579 -0.019 -0.022 0 255 204 42 
2.575 -0.014 -0.021 0 255 195 44 
2.573 -0.008 -0.02 0 255 191 45 
2.576 -0.007 0.001 0 255 191 45 
2.579 -0.011 -0.002 0 255 204 42 
2.576 -0.014 -0.006 0 255 212 40 
2.579 -0.018 -0.01 0 255 204 42 
2.58 -0.022 -0.014 0 255 208 41 
2.579 -0.025 -0.018 0 255 204 42 
2.579 -0.029 -0.022 0 255 204 42 
2.575 -0.033 -0.027 0 255 195 44 
2.573 -0.036 -0.031 0 255 191 45 
2.573 -0.04 -0.035 0 255 191 45 
2.573 -0.043 -0.039 0 255 191 45 
2.575 -0.047 -0.043 0 255 195 44 
2.571 -0.051 -0.047 0 255 199 43 
2.57 -0.054 -0.051 0 255 199 43 
2.576 -0.058 -0.056 0 255 212 40 
2.566 -0.061 -0.06 0 255 212 40 
2.579 -0.065 -0.064 0 255 208 41 
2.574 -0.068 -0.068 0 255 195 44 
2.567 -0.033 -0.068 0 255 170 50 
2.568 -0.032 -0.062 0 255 170 50 
2.568 -0.032 -0.057 0 255 161 52 
2.566 -0.032 -0.051 0 255 165 51 
2.569 -0.031 -0.046 0 255 174 49 
2.568 -0.031 -0.04 0 255 170 50 
2.569 -0.031 -0.035 0 255 174 49 
2.569 -0.031 -0.029 0 255 174 49 
2.57 -0.03 -0.024 0 255 178 48 
2.572 -0.03 -0.018 0 255 174 49 
2.569 -0.03 -0.013 0 255 182 47 
2.575 -0.03 -0.007 0 255 187 46 
2.573 -0.03 -0.002 0 255 191 45 
2.575 -0.03 0.003 0 255 187 46 
2.573 -0.029 0.008 0 255 191 45 
2.573 -0.029 0.014 0 255 191 45 
2.573 -0.029 0.019 0 255 191 45 
2.582 -0.029 0.025 0 255 165 51 
2.585 -0.029 0.03 0 255 89 69 
2.592 -0.071 0.03 0 255 127 60 
2.587 -0.068 0.026 0 255 182 47 
2.583 -0.065 0.021 0 255 212 40 
2.581 -0.061 0.017 0 255 204 42 
2.581 -0.058 0.012 0 255 204 42 
2.58 -0.055 0.008 0 255 199 43 
2.577 -0.052 0.003 0 255 212 40 
2.58 -0.049 0 0 255 208 41 
2.58 -0.045 -0.005 0 255 208 41 
2.58 -0.042 -0.009 0 255 208 41 
2.579 -0.039 -0.013 0 255 204 42 
2.575 -0.035 -0.018 0 255 195 44 
2.573 -0.032 -0.022 0 255 191 45 
2.575 -0.029 -0.026 0 255 195 44 
2.573 -0.025 -0.031 0 255 178 48 
2.566 -0.022 -0.035 0 255 174 49 
2.57 -0.019 -0.039 0 255 178 48 
2.57 -0.015 -0.044 0 255 178 48 
2.569 -0.012 -0.048 0 255 174 49 
2.571 -0.009 -0.052 0 255 170 50 
2.58 -0.008 -0.03 0 255 208 41 
2.58 -0.013 -0.028 0 255 208 41 
2.577 -0.019 -0.027 0 255 212 40 
2.577 -0.024 -0.026 0 255 212 40 
2.577 -0.029 -0.024 0 255 212 40 
2.58 -0.035 -0.023 0 255 208 41 
2.583 -0.04 -0.022 0 255 212 40 
2.58 -0.045 -0.021 0 255 199 43 
2.576 -0.051 -0.02 0 255 212 40 
2.576 -0.056 -0.018 0 255 212 40 
2.575 -0.062 -0.017 0 255 212 40 
2.578 -0.067 -0.016 0 255 216 39 
2.576 -0.072 -0.015 0 255 221 38 
2.576 -0.078 -0.014 0 255 221 38 
2.579 -0.083 -0.013 0 255 221 38 
2.579 -0.089 -0.012 0 255 221 38 
2.573 -0.094 -0.011 0 255 233 35 
2.581 -0.1 -0.01 0 255 225 37 
2.585 -0.105 -0.009 0 255 208 41 
2.584 -0.105 -0.058 0 255 187 46 
2.578 -0.1 -0.056 0 255 199 43 
2.579 -0.095 -0.054 0 255 204 42 
2.582 -0.09 -0.052 0 255 199 43 
2.576 -0.085 -0.049 0 255 212 40 
2.576 -0.08 -0.047 0 255 212 40 
2.579 -0.075 -0.045 0 255 199 43 
2.571 -0.07 -0.043 0 255 204 42 
2.576 -0.065 -0.04 0 255 212 40 
2.577 -0.06 -0.038 0 255 212 40 
2.577 -0.055 -0.036 0 255 212 40 
2.58 -0.05 -0.033 0 255 208 41 
2.58 -0.045 -0.031 0 255 208 41 
2.575 -0.04 -0.029 0 255 195 44 
2.573 -0.035 -0.026 0 255 191 45 
2.58 -0.03 -0.024 0 255 208 41 
2.571 -0.025 -0.021 0 255 199 43 
2.579 -0.02 -0.019 0 255 204 42 
2.575 -0.015 -0.017 0 255 195 44 
2.575 -0.01 -0.014 0 255 195 44 
2.575 -0.008 0.022 0 255 195 44 
2.575 -0.011 0.017 0 255 195 44 
2.571 -0.013 0.012 0 255 199 43 
2.579 -0.016 0.007 0 255 204 42 
2.579 -0.018 0.002 0 255 204 42 
2.571 -0.02 -0.002 0 255 199 43 
2.575 -0.023 -0.007 0 255 195 44 
2.575 -0.025 -0.012 0 255 195 44 
2.575 -0.027 -0.016 0 255 195 44 
2.575 -0.029 -0.022 0 255 195 44 
2.573 -0.032 -0.026 0 255 191 45 
2.569 -0.034 -0.031 0 255 182 47 
2.569 -0.036 -0.036 0 255 182 47 
2.568 -0.038 -0.041 0 255 178 48 
2.569 -0.04 -0.046 0 255 182 47 
2.569 -0.042 -0.051 0 255 182 47 
2.568 -0.045 -0.056 0 255 182 47 
2.568 -0.047 -0.061 0 255 182 47 
2.572 -0.049 -0.067 0 255 191 45 
2.569 -0.02 -0.067 0 255 165 51 
2.566 -0.021 -0.061 0 255 165 51 
2.566 -0.022 -0.056 0 255 174 49 
2.569 -0.024 -0.051 0 255 165 51 
2.569 -0.025 -0.045 0 255 174 49 
2.571 -0.026 -0.04 0 255 170 50 
2.569 -0.028 -0.035 0 255 174 49 
2.569 -0.029 -0.029 0 255 174 49 
2.57 -0.03 -0.024 0 255 178 48 
2.57 -0.032 -0.019 0 255 178 48 
2.569 -0.033 -0.013 0 255 182 47 
2.573 -0.035 -0.008 0 255 191 45 
2.573 -0.036 -0.003 0 255 191 45 
2.575 -0.038 0.002 0 255 195 44 
2.571 -0.039 0.007 0 255 199 43 
2.575 -0.041 0.012 0 255 195 44 
2.579 -0.043 0.018 0 255 204 42 
2.575 -0.044 0.023 0 255 195 44 
2.581 -0.046 0.028 0 255 144 56 
2.586 -0.103 0.029 0 255 157 53 
2.587 -0.099 0.026 0 255 182 47 
2.583 -0.094 0.022 0 255 208 41 
2.58 -0.09 0.019 0 255 204 42 
2.577 -0.085 0.016 0 255 216 39 
2.577 -0.081 0.012 0 255 216 39 
2.575 -0.077 0.009 0 255 212 40 
2.575 -0.072 0.006 0 255 212 40 
2.581 -0.068 0.002 0 255 204 42 
2.58 -0.064 0 0 255 199 43 
2.58 -0.059 -0.003 0 255 199 43 
2.58 -0.055 -0.006 0 255 199 43 
2.577 -0.05 -0.01 0 255 212 40 
2.58 -0.046 -0.013 0 255 208 41 
2.58 -0.042 -0.016 0 255 208 41 
2.579 -0.037 -0.019 0 255 204 42 
2.575 -0.033 -0.023 0 255 195 44 
2.573 -0.028 -0.026 0 255 191 45 
2.57 -0.024 -0.029 0 255 182 47 
2.573 -0.019 -0.032 0 255 191 45 
2.569 -0.015 -0.035 0 255 182 47 
2.57 -0.01 -0.038 0 255 178 48 
2.579 -0.007 -0.023 0 255 204 42 
2.577 -0.013 -0.023 0 255 212 40 
2.577 -0.018 -0.023 0 255 212 40 
2.58 -0.024 -0.024 0 255 208 41 
2.577 -0.029 -0.024 0 255 212 40 
2.58 -0.035 -0.024 0 255 208 41 
2.577 -0.04 -0.025 0 255 212 40 
2.58 -0.046 -0.025 0 255 199 43 
2.58 -0.051 -0.026 0 255 199 43 
2.576 -0.057 -0.026 0 255 212 40 
2.576 -0.062 -0.027 0 255 212 40 
2.575 -0.068 -0.027 0 255 212 40 
2.574 -0.073 -0.028 0 255 216 39 
2.575 -0.079 -0.028 0 255 212 40 
2.575 -0.084 -0.029 0 255 212 40 
2.575 -0.09 -0.029 0 255 212 40 
2.578 -0.095 -0.03 0 255 221 38 
2.574 -0.101 -0.031 0 255 212 40 
2.584 -0.107 -0.031 0 255 187 46 
2.578 -0.082 -0.071 0 255 208 41 
2.577 -0.078 -0.068 0 255 204 42 
2.575 -0.074 -0.064 0 255 212 40 
2.574 -0.07 -0.06 0 255 195 44 
2.574 -0.066 -0.057 0 255 195 44 
2.574 -0.062 -0.053 0 255 195 44 
2.574 -0.058 -0.049 0 255 195 44 
2.575 -0.054 -0.046 0 255 195 44 
2.575 -0.05 -0.042 0 255 195 44 
2.575 -0.046 -0.038 0 255 195 44 
2.575 -0.042 -0.034 0 255 195 44 
2.573 -0.038 -0.031 0 255 191 45 
2.575 -0.034 -0.027 0 255 187 46 
2.575 -0.029 -0.023 0 255 195 44 
2.576 -0.025 -0.019 0 255 191 45 
2.575 -0.021 -0.015 0 255 195 44 
2.575 -0.018 -0.012 0 255 195 44 
2.573 -0.014 -0.008 0 255 191 45 
2.575 -0.01 -0.004 0 255 195 44 
2.584 -0.023 0.032 0 255 114 63 
2.576 -0.024 0.026 0 255 170 50 
2.575 -0.024 0.021 0 255 195 44 
2.575 -0.025 0.016 0 255 195 44 
2.575 -0.026 0.01 0 255 195 44 
2.575 -0.027 0.005 0 255 195 44 
2.575 -0.027 0 0 255 195 44 
2.57 -0.028 -0.005 0 255 182 47 
2.575 -0.029 -0.01 0 255 195 44 
2.575 -0.03 -0.016 0 255 195 44 
2.576 -0.03 -0.021 0 255 191 45 
2.573 -0.031 -0.027 0 255 191 45 
2.568 -0.031 -0.032 0 255 178 48 
2.569 -0.032 -0.038 0 255 174 49 
2.568 -0.033 -0.043 0 255 178 48 
2.568 -0.033 -0.048 0 255 178 48 
2.569 -0.034 -0.054 0 255 174 49 
2.568 -0.034 -0.059 0 255 178 48 
2.567 -0.035 -0.065 0 255 178 48 
2.57 -0.035 -0.07 0 255 170 50 
2.566 -0.008 -0.06 0 255 174 49 
2.568 -0.011 -0.056 0 255 170 50 
2.568 -0.014 -0.051 0 255 178 48 
2.568 -0.017 -0.046 0 255 178 48 
2.568 -0.02 -0.041 0 255 178 48 
2.569 -0.022 -0.037 0 255 182 47 
2.57 -0.025 -0.032 0 255 178 48 
2.573 -0.028 -0.028 0 255 191 45 
2.573 -0.031 -0.023 0 255 191 45 
2.575 -0.034 -0.018 0 255 195 44 
2.575 -0.037 -0.014 0 255 195 44 
2.572 -0.04 -0.009 0 255 204 42 
2.58 -0.043 -0.004 0 255 208 41 
2.577 -0.046 0 0 255 212 40 
2.58 -0.049 0.004 0 255 208 41 
2.583 -0.053 0.009 0 255 212 40 
2.575 -0.056 0.013 0 255 212 40 
2.576 -0.059 0.018 0 255 212 40 
2.584 -0.062 0.022 0 255 199 43 
2.586 -0.065 0.027 0 255 191 45 
2.589 -0.068 0.032 0 255 140 57 
2.582 -0.103 0.001 0 255 199 43 
2.578 -0.098 0 0 255 221 38 
2.578 -0.093 -0.002 0 255 221 38 
2.58 -0.088 -0.004 0 255 212 40 
2.58 -0.083 -0.006 0 255 204 42 
2.577 -0.077 -0.008 0 255 216 39 
2.577 -0.072 -0.01 0 255 216 39 
2.578 -0.067 -0.012 0 255 204 42 
2.58 -0.062 -0.013 0 255 208 41 
2.578 -0.057 -0.015 0 255 204 42 
2.58 -0.052 -0.017 0 255 199 43 
2.577 -0.047 -0.019 0 255 212 40 
2.577 -0.041 -0.021 0 255 212 40 
2.575 -0.036 -0.022 0 255 195 44 
2.575 -0.031 -0.024 0 255 195 44 
2.579 -0.026 -0.026 0 255 204 42 
2.575 -0.021 -0.027 0 255 195 44 
2.575 -0.015 -0.029 0 255 195 44 
2.57 -0.01 -0.031 0 255 182 47 
2.58 -0.007 -0.015 0 255 208 41 
2.577 -0.012 -0.017 0 255 212 40 
2.577 -0.017 -0.019 0 255 212 40 
2.577 -0.022 -0.021 0 255 212 40 
2.577 -0.027 -0.023 0 255 212 40 
2.58 -0.032 -0.025 0 255 208 41 
2.58 -0.038 -0.027 0 255 208 41 
2.577 -0.043 -0.029 0 255 212 40 
2.575 -0.048 -0.031 0 255 212 40 
2.58 -0.053 -0.033 0 255 199 43 
2.572 -0.058 -0.035 0 255 204 42 
2.571 -0.063 -0.037 0 255 204 42 
2.58 -0.068 -0.04 0 255 204 42 
2.574 -0.073 -0.042 0 255 212 40 
2.579 -0.078 -0.044 0 255 199 43 
2.57 -0.083 -0.046 0 255 208 41 
2.575 -0.088 -0.048 0 255 212 40 
2.574 -0.093 -0.05 0 255 212 40 
2.574 -0.098 -0.053 0 255 212 40 
2.581 -0.103 -0.055 0 255 212 40 
2.572 -0.056 -0.069 0 255 191 45 
2.569 -0.053 -0.064 0 255 182 47 
2.569 -0.051 -0.059 0 255 178 48 
2.564 -0.048 -0.054 0 255 170 50 
2.569 -0.045 -0.05 0 255 182 47 
2.569 -0.042 -0.045 0 255 182 47 
2.569 -0.04 -0.04 0 255 182 47 
2.569 -0.037 -0.035 0 255 182 47 
2.572 -0.034 -0.031 0 255 174 49 
2.568 -0.031 -0.026 0 255 178 48 
2.569 -0.029 -0.021 0 255 182 47 
2.575 -0.026 -0.016 0 255 187 46 
2.569 -0.023 -0.011 0 255 182 47 
2.573 -0.021 -0.006 0 255 191 45 
2.575 -0.018 -0.002 0 255 195 44 
2.575 -0.016 0.002 0 255 195 44 
2.575 -0.013 0.007 0 255 195 44 
2.575 -0.01 0.012 0 255 195 44 
2.575 -0.008 0.017 0 255 187 46 
2.578 -0.04 0.029 0 255 153 54 
2.576 -0.039 0.023 0 255 191 45 
2.58 -0.038 0.018 0 255 208 41 
2.579 -0.037 0.012 0 255 204 42 
2.58 -0.036 0.007 0 255 208 41 
2.575 -0.035 0.002 0 255 195 44 
2.575 -0.034 -0.003 0 255 195 44 
2.575 -0.033 -0.008 0 255 195 44 
2.575 -0.032 -0.013 0 255 195 44 
2.575 -0.031 -0.019 0 255 195 44 
2.569 -0.03 -0.024 0 255 182 47 
2.57 -0.029 -0.029 0 255 178 48 
2.572 -0.028 -0.035 0 255 174 49 
2.569 -0.027 -0.04 0 255 174 49 
2.569 -0.026 -0.046 0 255 174 49 
2.568 -0.025 -0.051 0 255 178 48 
2.569 -0.024 -0.056 0 255 174 49 
2.565 -0.023 -0.062 0 255 170 50 
2.566 -0.022 -0.067 0 255 174 49 
2.573 -0.008 -0.043 0 255 191 45 
2.573 -0.012 -0.04 0 255 191 45 
2.575 -0.016 -0.036 0 255 195 44 
2.575 -0.02 -0.033 0 255 195 44 
2.575 -0.025 -0.029 0 255 195 44 
2.58 -0.029 -0.026 0 255 208 41 
2.579 -0.033 -0.022 0 255 204 42 
2.58 -0.037 -0.018 0 255 208 41 
2.577 -0.042 -0.015 0 255 212 40 
2.575 -0.046 -0.011 0 255 212 40 
2.576 -0.05 -0.008 0 255 212 40 
2.576 -0.055 -0.004 0 255 212 40 
2.576 -0.059 -0.001 0 255 212 40 
2.576 -0.063 0.002 0 255 212 40 
2.584 -0.068 0.005 0 255 212 40 
2.578 -0.072 0.009 0 255 225 37 
2.578 -0.076 0.012 0 255 225 37 
2.578 -0.081 0.015 0 255 225 37 
2.578 -0.085 0.019 0 255 225 37 
2.584 -0.09 0.022 0 255 212 40 
2.587 -0.094 0.026 0 255 199 43 
2.59 -0.099 0.029 0 255 199 43 
2.584 -0.103 0.032 0 255 212 40 
2.586 -0.106 -0.022 0 255 187 46 
2.574 -0.1 -0.022 0 255 212 40 
2.577 -0.095 -0.022 0 255 216 39 
2.575 -0.089 -0.022 0 255 212 40 
2.58 -0.084 -0.023 0 255 204 42 
2.58 -0.078 -0.023 0 255 204 42 
2.579 -0.073 -0.023 0 255 199 43 
2.574 -0.067 -0.023 0 255 212 40 
2.577 -0.062 -0.023 0 255 212 40 
2.583 -0.057 -0.024 0 255 212 40 
2.577 -0.051 -0.024 0 255 212 40 
2.58 -0.045 -0.024 0 255 208 41 
2.579 -0.04 -0.024 0 255 204 42 
2.575 -0.034 -0.024 0 255 195 44 
2.579 -0.029 -0.024 0 255 204 42 
2.575 -0.024 -0.024 0 255 195 44 
2.579 -0.018 -0.024 0 255 204 42 
2.575 -0.013 -0.024 0 255 195 44 
2.573 -0.007 -0.024 0 255 191 45 
2.58 -0.007 -0.005 0 255 199 43 
2.577 -0.011 -0.008 0 255 212 40 
2.577 -0.015 -0.012 0 255 212 40 
2.577 -0.019 -0.015 0 255 212 40 
2.575 -0.024 -0.019 0 255 199 43 
2.58 -0.028 -0.022 0 255 208 41 
2.571 -0.032 -0.025 0 255 199 43 
2.579 -0.037 -0.029 0 255 204 42 
2.576 -0.041 -0.032 0 255 212 40 
2.571 -0.045 -0.036 0 255 199 43 
2.577 -0.049 -0.039 0 255 212 40 
2.577 -0.053 -0.043 0 255 212 40 
2.566 -0.058 -0.046 0 255 212 40 
2.574 -0.062 -0.05 0 255 195 44 
2.576 -0.066 -0.054 0 255 212 40 
2.571 -0.07 -0.057 0 255 204 42 
2.571 -0.074 -0.061 0 255 204 42 
2.575 -0.079 -0.065 0 255 212 40 
2.578 -0.083 -0.068 0 255 208 41 
2.568 -0.041 -0.069 0 255 174 49 
2.567 -0.039 -0.064 0 255 178 48 
2.566 -0.038 -0.058 0 255 174 49 
2.569 -0.037 -0.053 0 255 165 51 
2.571 -0.036 -0.048 0 255 170 50 
2.569 -0.034 -0.042 0 255 174 49 
2.569 -0.033 -0.037 0 255 174 49 
2.571 -0.032 -0.032 0 255 170 50 
2.571 -0.031 -0.026 0 255 170 50 
2.575 -0.03 -0.021 0 255 187 46 
2.576 -0.029 -0.015 0 255 182 47 
2.569 -0.028 -0.01 0 255 182 47 
2.569 -0.026 -0.004 0 255 182 47 
2.572 -0.025 0 0 255 178 48 
2.572 -0.024 0.005 0 255 178 48 
2.57 -0.023 0.011 0 255 182 47 
2.575 -0.022 0.016 0 255 195 44 
2.57 -0.021 0.022 0 255 178 48 
2.58 -0.021 0.027 0 255 123 61 
2.587 -0.02 0.032 0 255 59 76 
2.593 -0.059 0.03 0 255 127 60 
2.589 -0.056 0.025 0 255 182 47 
2.58 -0.054 0.02 0 255 208 41 
2.58 -0.051 0.015 0 255 199 43 
2.58 -0.049 0.01 0 255 208 41 
2.577 -0.046 0.005 0 255 212 40 
2.58 -0.044 0 0 255 208 41 
2.579 -0.041 -0.004 0 255 204 42 
2.575 -0.039 -0.009 0 255 195 44 
2.575 -0.036 -0.013 0 255 195 44 
2.575 -0.034 -0.018 0 255 195 44 
2.575 -0.031 -0.023 0 255 195 44 
2.573 -0.028 -0.028 0 255 191 45 
2.57 -0.026 -0.033 0 255 178 48 
2.57 -0.023 -0.038 0 255 178 48 
2.569 -0.021 -0.042 0 255 182 47 
2.57 -0.018 -0.047 0 255 178 48 
2.568 -0.015 -0.052 0 255 178 48 
2.565 -0.013 -0.057 0 255 170 50 
2.568 -0.01 -0.061 0 255 161 52 
2.569 -0.007 -0.066 0 255 165 51 
2.576 -0.011 -0.032 0 255 212 40 
2.576 -0.016 -0.03 0 255 212 40 
2.58 -0.021 -0.028 0 255 208 41 
2.572 -0.026 -0.026 0 255 204 42 
2.58 -0.031 -0.024 0 255 208 41 
2.583 -0.036 -0.022 0 255 212 40 
2.575 -0.041 -0.02 0 255 212 40 
2.575 -0.047 -0.018 0 255 212 40 
2.578 -0.052 -0.016 0 255 216 39 
2.576 -0.057 -0.013 0 255 212 40 
2.576 -0.062 -0.011 0 255 212 40 
2.579 -0.067 -0.009 0 255 221 38 
2.573 -0.072 -0.007 0 255 233 35 
2.579 -0.077 -0.006 0 255 221 38 
2.578 -0.083 -0.004 0 255 225 37 
2.573 -0.088 -0.002 0 255 233 35 
2.579 -0.093 0 0 255 229 36 
2.581 -0.098 0.001 0 255 225 37 
2.584 -0.103 0.003 0 255 212 40 
2.58 -0.103 -0.044 0 255 204 42 
2.574 -0.098 -0.043 0 255 212 40 
2.582 -0.093 -0.042 0 255 199 43 
2.58 -0.088 -0.04 0 255 204 42 
2.579 -0.082 -0.039 0 255 199 43 
2.577 -0.077 -0.037 0 255 204 42 
2.576 -0.072 -0.036 0 255 212 40 
2.576 -0.066 -0.034 0 255 212 40 
2.58 -0.061 -0.033 0 255 208 41 
2.583 -0.056 -0.032 0 255 212 40 
2.577 -0.05 -0.03 0 255 212 40 
2.58 -0.045 -0.028 0 255 208 41 
2.579 -0.04 -0.027 0 255 204 42 
2.575 -0.035 -0.025 0 255 195 44 
2.579 -0.029 -0.024 0 255 204 42 
2.579 -0.024 -0.022 0 255 204 42 
2.576 -0.019 -0.021 0 255 212 40 
2.58 -0.014 -0.019 0 255 208 41 
2.575 -0.009 -0.017 0 255 195 44 
2.576 -0.007 0.009 0 255 191 45 
2.579 -0.01 0.005 0 255 204 42 
2.58 -0.014 0 0 255 208 41 
2.571 -0.017 -0.003 0 255 199 43 
2.571 -0.02 -0.008 0 255 199 43 
2.575 -0.023 -0.012 0 255 195 44 
2.571 -0.026 -0.017 0 255 199 43 
2.575 -0.029 -0.022 0 255 195 44 
2.575 -0.032 -0.026 0 255 195 44 
2.57 -0.035 -0.031 0 255 195 44 
2.569 -0.038 -0.035 0 255 182 47 
2.569 -0.041 -0.04 0 255 182 47 
2.573 -0.044 -0.045 0 255 191 45 
2.573 -0.047 -0.049 0 255 191 45 
2.569 -0.05 -0.054 0 255 182 47 
2.572 -0.053 -0.058 0 255 191 45 
2.57 -0.055 -0.063 0 255 199 43 
2.578 -0.059 -0.068 0 255 204 42 
2.567 -0.026 -0.069 0 255 170 50 
2.569 -0.027 -0.064 0 255 165 51 
2.568 -0.027 -0.058 0 255 170 50 
2.566 -0.028 -0.053 0 255 165 51 
2.566 -0.028 -0.047 0 255 174 49 
2.571 -0.029 -0.042 0 255 170 50 
2.569 -0.029 -0.036 0 255 174 49 
2.569 -0.03 -0.031 0 255 174 49 
2.572 -0.03 -0.025 0 255 174 49 
2.57 -0.031 -0.02 0 255 178 48 
2.57 -0.032 -0.014 0 255 182 47 
2.57 -0.032 -0.009 0 255 178 48 
2.573 -0.033 -0.003 0 255 191 45 
2.576 -0.033 0.001 0 255 191 45 
2.575 -0.034 0.007 0 255 195 44 
2.575 -0.035 0.012 0 255 195 44 
2.575 -0.035 0.018 0 255 195 44 
2.572 -0.036 0.023 0 255 174 49 
2.584 -0.037 0.029 0 255 114 63 
2.59 -0.084 0.03 0 255 136 58 
2.59 -0.081 0.026 0 255 174 49 
2.583 -0.077 0.022 0 255 208 41 
2.583 -0.073 0.018 0 255 212 40 
2.576 -0.069 0.014 0 255 212 40 
2.581 -0.065 0.01 0 255 204 42 
2.58 -0.062 0.006 0 255 199 43 
2.58 -0.058 0.002 0 255 199 43 
2.58 -0.054 -0.001 0 255 208 41 
2.58 -0.05 -0.005 0 255 208 41 
2.58 -0.046 -0.009 0 255 208 41 
2.58 -0.042 -0.013 0 255 208 41 
2.575 -0.038 -0.016 0 255 195 44 
2.575 -0.034 -0.02 0 255 195 44 
2.575 -0.031 -0.024 0 255 195 44 
2.575 -0.027 -0.028 0 255 195 44 
2.573 -0.023 -0.032 0 255 191 45 
2.57 -0.019 -0.035 0 255 182 47 
2.569 -0.015 -0.039 0 255 182 47 
2.57 -0.011 -0.043 0 255 178 48 
2.572 -0.007 -0.047 0 255 157 53 
2.577 -0.008 -0.026 0 255 212 40 
2.58 -0.013 -0.026 0 255 208 41 
2.572 -0.019 -0.025 0 255 204 42 
2.577 -0.024 -0.025 0 255 212 40 
2.572 -0.03 -0.024 0 255 204 42 
2.58 -0.035 -0.024 0 255 208 41 
2.575 -0.041 -0.023 0 255 212 40 
2.575 -0.046 -0.023 0 255 212 40 
2.576 -0.052 -0.022 0 255 212 40 
2.575 -0.057 -0.022 0 255 212 40 
2.576 -0.063 -0.022 0 255 212 40 
2.578 -0.068 -0.021 0 255 221 38 
2.577 -0.074 -0.021 0 255 216 39 
2.576 -0.079 -0.021 0 255 221 38 
2.578 -0.085 -0.02 0 255 221 38 
2.579 -0.091 -0.02 0 255 221 38 
2.576 -0.096 -0.02 0 255 221 38 
2.586 -0.102 -0.02 0 255 208 41 
2.59 -0.108 -0.02 0 255 178 48 
2.581 -0.1 -0.07 0 255 212 40 
2.578 -0.095 -0.067 0 255 199 43 
2.578 -0.091 -0.064 0 255 199 43 
2.575 -0.086 -0.061 0 255 212 40 
2.576 -0.081 -0.058 0 255 212 40 
2.579 -0.077 -0.055 0 255 208 41 
2.579 -0.072 -0.052 0 255 208 41 
2.579 -0.068 -0.049 0 255 208 41 
2.579 -0.063 -0.046 0 255 208 41 
2.576 -0.058 -0.043 0 255 212 40 
2.576 -0.054 -0.04 0 255 212 40 
2.58 -0.049 -0.037 0 255 208 41 
2.579 -0.045 -0.034 0 255 204 42 
2.575 -0.04 -0.031 0 255 195 44 
2.575 -0.035 -0.027 0 255 195 44 
2.575 -0.031 -0.024 0 255 195 44 
2.575 -0.026 -0.021 0 255 195 44 
2.575 -0.022 -0.018 0 255 195 44 
2.575 -0.017 -0.015 0 255 195 44 
2.579 -0.013 -0.012 0 255 204 42 
2.575 -0.008 -0.009 0 255 195 44 
2.576 -0.014 0.031 0 255 161 52 
2.58 -0.016 0.026 0 255 199 43 
2.571 -0.017 0.02 0 255 199 43 
2.567 -0.019 0.015 0 255 212 40 
2.575 -0.02 0.01 0 255 195 44 
2.575 -0.022 0.004 0 255 195 44 
2.575 -0.024 0 0 255 195 44 
2.575 -0.025 -0.005 0 255 195 44 
2.575 -0.027 -0.01 0 255 195 44 
2.575 -0.028 -0.016 0 255 195 44 
2.575 -0.03 -0.021 0 255 195 44 
2.573 -0.031 -0.026 0 255 191 45 
2.573 -0.033 -0.031 0 255 191 45 
2.57 -0.034 -0.037 0 255 178 48 
2.57 -0.035 -0.042 0 255 178 48 
2.568 -0.037 -0.047 0 255 178 48 
2.57 -0.038 -0.053 0 255 178 48 
2.569 -0.04 -0.058 0 255 182 47 
2.569 -0.041 -0.063 0 255 178 48 
2.569 -0.042 -0.068 0 255 178 48 
2.568 -0.012 -0.068 0 255 170 50 
2.568 -0.014 -0.063 0 255 161 52 
2.568 -0.016 -0.058 0 255 170 50 
2.568 -0.018 -0.053 0 255 170 50 
2.568 -0.02 -0.048 0 255 178 48 
2.569 -0.022 -0.043 0 255 174 49 
2.571 -0.025 -0.038 0 255 170 50 
2.57 -0.027 -0.033 0 255 178 48 
2.569 -0.029 -0.028 0 255 182 47 
2.576 -0.031 -0.023 0 255 182 47 
2.57 -0.033 -0.017 0 255 182 47 
2.573 -0.036 -0.012 0 255 191 45 
2.575 -0.038 -0.007 0 255 195 44 
2.579 -0.04 -0.002 0 255 204 42 
2.58 -0.043 0.002 0 255 208 41 
2.58 -0.045 0.007 0 255 208 41 
2.58 -0.047 0.012 0 255 208 41 
2.577 -0.05 0.017 0 255 212 40 
2.577 -0.052 0.022 0 255 212 40 
2.582 -0.054 0.027 0 255 174 49 
2.587 -0.057 0.032 0 255 97 67 
2.588 -0.107 0.015 0 255 199 43 
2.583 -0.102 0.013 0 255 212 40 
2.579 -0.097 0.01 0 255 221 38 
2.584 -0.092 0.007 0 255 212 40 
2.578 -0.087 0.005 0 255 221 38 
2.575 -0.082 0.002 0 255 212 40 
2.58 -0.078 0 0 255 204 42 
2.575 -0.073 -0.002 0 255 212 40 
2.58 -0.068 -0.005 0 255 199 43 
2.572 -0.063 -0.007 0 255 204 42 
2.577 -0.058 -0.01 0 255 212 40 
2.58 -0.053 -0.012 0 255 199 43 
2.577 -0.049 -0.015 0 255 212 40 
2.577 -0.044 -0.017 0 255 212 40 
2.575 -0.039 -0.02 0 255 195 44 
2.58 -0.034 -0.022 0 255 208 41 
2.575 -0.029 -0.025 0 255 195 44 
2.575 -0.024 -0.027 0 255 195 44 
2.575 -0.019 -0.03 0 255 195 44 
2.575 -0.014 -0.032 0 255 195 44 
2.576 -0.01 -0.035 0 255 191 45 
2.58 -0.008 -0.019 0 255 208 41 
2.58 -0.014 -0.02 0 255 208 41 
2.577 -0.019 -0.022 0 255 212 40 
2.577 -0.025 -0.023 0 255 212 40 
2.58 -0.03 -0.024 0 255 208 41 
2.577 -0.035 -0.025 0 255 212 40 
2.58 -0.041 -0.027 0 255 199 43 
2.578 -0.046 -0.028 0 255 204 42 
2.575 -0.051 -0.029 0 255 212 40 
2.576 -0.057 -0.03 0 255 212 40 
2.576 -0.062 -0.032 0 255 212 40 
2.575 -0.067 -0.033 0 255 212 40 
2.575 -0.073 -0.034 0 255 212 40 
2.574 -0.078 -0.036 0 255 212 40 
2.578 -0.083 -0.037 0 255 208 41 
2.575 -0.089 -0.039 0 255 212 40 
2.573 -0.094 -0.04 0 255 216 39 
2.576 -0.099 -0.042 0 255 216 39 
2.58 -0.105 -0.043 0 255 204 42 
2.574 -0.066 -0.068 0 255 195 44 
2.574 -0.062 -0.064 0 255 195 44 
2.574 -0.059 -0.06 0 255 195 44 
2.568 -0.055 -0.056 0 255 182 47 
2.568 -0.052 -0.051 0 255 182 47 
2.573 -0.049 -0.047 0 255 191 45 
2.57 -0.045 -0.043 0 255 182 47 
2.573 -0.042 -0.039 0 255 191 45 
2.575 -0.038 -0.034 0 255 187 46 
2.569 -0.035 -0.03 0 255 182 47 
2.569 -0.032 -0.025 0 255 182 47 
2.569 -0.028 -0.021 0 255 182 47 
2.569 -0.025 -0.017 0 255 182 47 
2.575 -0.022 -0.012 0 255 187 46 
2.57 -0.018 -0.008 0 255 182 47 
2.575 -0.015 -0.004 0 255 195 44 
2.573 -0.012 0 0 255 191 45 
2.575 -0.009 0.004 0 255 195 44 
2.582 -0.032 0.027 0 255 165 51 
2.575 -0.032 0.022 0 255 195 44 
2.575 -0.032 0.016 0 255 195 44 
2.575 -0.032 0.011 0 255 195 44 
2.575 -0.031 0.005 0 255 195 44 
2.575 -0.031 0 0 255 195 44 
2.575 -0.031 -0.004 0 255 195 44 
2.575 -0.031 -0.01 0 255 195 44 
2.575 -0.031 -0.015 0 255 195 44 
2.575 -0.031 -0.021 0 255 195 44 
2.573 -0.03 -0.026 0 255 191 45 
2.57 -0.03 -0.032 0 255 178 48 
2.569 -0.03 -0.037 0 255 174 49 
2.566 -0.03 -0.043 0 255 174 49 
2.571 -0.029 -0.048 0 255 170 50 
2.569 -0.029 -0.054 0 255 174 49 
2.566 -0.029 -0.059 0 255 174 49 
2.569 -0.028 -0.065 0 255 174 49 
2.568 -0.028 -0.07 0 255 165 51 
2.568 -0.01 -0.047 0 255 178 48 
2.57 -0.014 -0.043 0 255 182 47 
2.576 -0.017 -0.039 0 255 191 45 
2.573 -0.021 -0.035 0 255 191 45 
2.575 -0.025 -0.031 0 255 195 44 
2.575 -0.028 -0.027 0 255 195 44 
2.575 -0.032 -0.022 0 255 195 44 
2.58 -0.036 -0.018 0 255 208 41 
2.58 -0.039 -0.014 0 255 208 41 
2.583 -0.043 -0.01 0 255 212 40 
2.58 -0.047 -0.006 0 255 199 43 
2.58 -0.051 -0.002 0 255 199 43 
2.58 -0.054 0.001 0 255 199 43 
2.581 -0.058 0.005 0 255 204 42 
2.581 -0.062 0.009 0 255 204 42 
2.578 -0.066 0.013 0 255 216 39 
2.578 -0.07 0.017 0 255 221 38 
2.578 -0.073 0.021 0 255 221 38 
2.585 -0.077 0.025 0 255 212 40 
2.588 -0.081 0.029 0 255 182 47 
2.582 -0.104 -0.011 0 255 199 43 
2.578 -0.099 -0.012 0 255 221 38 
2.575 -0.093 -0.013 0 255 212 40 
2.575 -0.088 -0.014 0 255 212 40 
2.583 -0.083 -0.015 0 255 212 40 
2.58 -0.077 -0.016 0 255 204 42 
2.58 -0.072 -0.017 0 255 204 42 
2.58 -0.066 -0.018 0 255 199 43 
2.577 -0.061 -0.019 0 255 212 40 
2.572 -0.055 -0.02 0 255 204 42 
2.577 -0.05 -0.021 0 255 212 40 
2.58 -0.045 -0.022 0 255 208 41 
2.579 -0.039 -0.023 0 255 204 42 
2.579 -0.034 -0.024 0 255 204 42 
2.579 -0.028 -0.024 0 255 204 42 
2.579 -0.023 -0.025 0 255 204 42 
2.579 -0.018 -0.026 0 255 204 42 
2.575 -0.012 -0.027 0 255 195 44 
2.576 -0.007 -0.028 0 255 182 47 
2.577 -0.008 -0.01 0 255 212 40 
2.577 -0.012 -0.013 0 255 212 40 
2.577 -0.017 -0.016 0 255 212 40 
2.577 -0.022 -0.019 0 255 212 40 
2.58 -0.027 -0.022 0 255 208 41 
2.58 -0.031 -0.024 0 255 208 41 
2.571 -0.036 -0.027 0 255 199 43 
2.577 -0.041 -0.03 0 255 212 40 
2.576 -0.045 -0.033 0 255 212 40 
2.577 -0.05 -0.036 0 255 212 40 
2.577 -0.055 -0.039 0 255 212 40 
2.571 -0.059 -0.042 0 255 204 42 
2.574 -0.064 -0.045 0 255 199 43 
2.576 -0.068 -0.048 0 255 212 40 
2.571 -0.073 -0.051 0 255 204 42 
2.574 -0.078 -0.054 0 255 199 43 
2.571 -0.082 -0.056 0 255 204 42 
2.57 -0.087 -0.059 0 255 204 42 
2.573 -0.091 -0.063 0 255 212 40 
2.573 -0.096 -0.066 0 255 212 40 
2.581 -0.101 -0.069 0 255 212 40 
2.569 -0.048 -0.071 0 255 178 48 
2.567 -0.046 -0.066 0 255 178 48 
2.57 -0.044 -0.061 0 255 170 50 
2.569 -0.042 -0.056 0 255 165 51 
2.568 -0.04 -0.051 0 255 178 48 
2.57 -0.038 -0.046 0 255 178 48 
2.571 -0.036 -0.041 0 255 170 50 
2.568 -0.035 -0.035 0 255 178 48 
2.569 -0.033 -0.03 0 255 174 49 
2.57 -0.031 -0.025 0 255 178 48 
2.57 -0.029 -0.02 0 255 178 48 
2.569 -0.027 -0.015 0 255 182 47 
2.57 -0.025 -0.01 0 255 178 48 
2.57 -0.024 -0.004 0 255 178 48 
2.573 -0.022 0 0 255 191 45 
2.575 -0.02 0.005 0 255 195 44 
2.575 -0.018 0.01 0 255 195 44 
2.573 -0.017 0.016 0 255 191 45 
2.578 -0.015 0.021 0 255 187 46 
2.58 -0.013 0.026 0 255 136 58 
2.587 -0.012 0.031 0 255 59 76 
2.582 -0.05 0.029 0 255 148 55 
2.576 -0.048 0.024 0 255 191 45 
2.58 -0.046 0.019 0 255 208 41 
2.577 -0.044 0.013 0 255 212 40 
2.58 -0.043 0.008 0 255 208 41 
2.579 -0.041 0.003 0 255 204 42 
2.579 -0.039 -0.001 0 255 204 42 
2.571 -0.037 -0.006 0 255 199 43 
2.575 -0.035 -0.011 0 255 195 44 
2.575 -0.033 -0.016 0 255 195 44 
2.575 -0.031 -0.022 0 255 195 44 
2.575 -0.03 -0.027 0 255 195 44 
2.573 -0.028 -0.032 0 255 178 48 
2.57 -0.026 -0.037 0 255 178 48 
2.569 -0.024 -0.042 0 255 182 47 
2.568 -0.022 -0.047 0 255 178 48 
2.568 -0.02 -0.052 0 255 178 48 
2.571 -0.018 -0.057 0 255 170 50 
2.566 -0.016 -0.062 0 255 174 49 
2.568 -0.014 -0.067 0 255 178 48 
2.575 -0.008 -0.037 0 255 195 44 
2.575 -0.013 -0.035 0 255 195 44 
2.579 -0.018 -0.032 0 255 204 42 
2.577 -0.022 -0.029 0 255 212 40 
2.577 -0.027 -0.026 0 255 212 40 
2.58 -0.032 -0.023 0 255 208 41 
2.577 -0.037 -0.021 0 255 212 40 
2.58 -0.041 -0.018 0 255 199 43 
2.575 -0.046 -0.015 0 255 212 40 
2.578 -0.051 -0.012 0 255 216 39 
2.576 -0.056 -0.01 0 255 212 40 
2.576 -0.061 -0.007 0 255 212 40 
2.58 -0.066 -0.004 0 255 221 38 
2.58 -0.07 -0.002 0 255 221 38 
2.578 -0.075 0 0 255 225 37 
2.579 -0.08 0.002 0 255 229 36 
2.579 -0.085 0.005 0 255 229 36 
2.574 -0.09 0.008 0 255 238 34 
2.577 -0.095 0.01 0 255 242 33 
2.588 -0.1 0.013 0 255 221 38 
2.589 -0.105 0.015 0 255 195 44 
2.586 -0.107 -0.035 0 255 182 47 
2.581 -0.101 -0.034 0 255 212 40 
2.579 -0.096 -0.033 0 255 204 42 
2.58 -0.09 -0.033 0 255 204 42 
2.58 -0.085 -0.032 0 255 204 42 
2.579 -0.079 -0.031 0 255 199 43 
2.579 -0.074 -0.031 0 255 199 43 
2.576 -0.068 -0.03 0 255 212 40 
2.577 -0.063 -0.029 0 255 212 40 
2.577 -0.058 -0.028 0 255 212 40 
2.58 -0.052 -0.028 0 255 208 41 
2.58 -0.047 -0.027 0 255 208 41 
2.58 -0.041 -0.026 0 255 208 41 
2.575 -0.036 -0.025 0 255 195 44 
2.579 -0.031 -0.024 0 255 204 42 
2.579 -0.025 -0.023 0 255 204 42 
2.579 -0.02 -0.022 0 255 204 42 
2.571 -0.014 -0.021 0 255 199 43 
2.575 -0.009 -0.02 0 255 195 44 
2.579 -0.007 0.002 0 255 204 42 
2.58 -0.01 -0.001 0 255 208 41 
2.58 -0.014 -0.005 0 255 208 41 
2.574 -0.018 -0.009 0 255 212 40 
2.579 -0.021 -0.014 0 255 204 42 
2.58 -0.025 -0.018 0 255 208 41 
2.575 -0.028 -0.022 0 255 195 44 
2.575 -0.032 -0.026 0 255 195 44 
2.575 -0.036 -0.03 0 255 195 44 
2.575 -0.039 -0.034 0 255 195 44 
2.571 -0.043 -0.038 0 255 199 43 
2.571 -0.046 -0.042 0 255 199 43 
2.571 -0.05 -0.047 0 255 199 43 
2.569 -0.053 -0.051 0 255 195 44 
2.57 -0.057 -0.055 0 255 199 43 
2.579 -0.06 -0.059 0 255 208 41 
2.576 -0.064 -0.064 0 255 212 40 
2.57 -0.067 -0.068 0 255 199 43 
2.57 -0.032 -0.068 0 255 170 50 
2.569 -0.032 -0.062 0 255 165 51 
2.566 -0.032 -0.057 0 255 165 51 
2.571 -0.031 -0.051 0 255 170 50 
2.566 -0.031 -0.046 0 255 174 49 
2.566 -0.031 -0.04 0 255 165 51 
2.569 -0.031 -0.035 0 255 174 49 
2.57 -0.031 -0.029 0 255 178 48 
2.572 -0.03 -0.024 0 255 174 49 
2.569 -0.03 -0.018 0 255 182 47 
2.576 -0.03 -0.013 0 255 182 47 
2.57 -0.03 -0.007 0 255 182 47 
2.573 -0.03 -0.002 0 255 191 45 
2.573 -0.03 0.003 0 255 191 45 
2.569 -0.03 0.008 0 255 182 47 
2.57 -0.03 0.014 0 255 182 47 
2.575 -0.03 0.019 0 255 195 44 
2.582 -0.03 0.025 0 255 165 51 
2.585 -0.03 0.031 0 255 89 69 
2.587 -0.072 0.028 0 255 157 53 
2.582 -0.068 0.024 0 255 199 43 
2.583 -0.065 0.02 0 255 212 40 
2.576 -0.061 0.015 0 255 212 40 
2.577 -0.058 0.011 0 255 212 40 
2.577 -0.055 0.006 0 255 212 40 
2.58 -0.052 0.002 0 255 208 41 
2.577 -0.048 -0.001 0 255 212 40 
2.58 -0.045 -0.006 0 255 208 41 
2.579 -0.042 -0.01 0 255 204 42 
2.575 -0.038 -0.014 0 255 195 44 
2.575 -0.035 -0.019 0 255 195 44 
2.579 -0.032 -0.023 0 255 204 42 
2.573 -0.028 -0.027 0 255 191 45 
2.57 -0.025 -0.031 0 255 178 48 
2.569 -0.021 -0.036 0 255 182 47 
2.569 -0.018 -0.04 0 255 182 47 
2.569 -0.014 -0.044 0 255 182 47 
2.568 -0.011 -0.048 0 255 178 48 
2.569 -0.007 -0.052 0 255 165 51 
2.577 -0.01 -0.029 0 255 212 40 
2.577 -0.015 -0.027 0 255 212 40 
2.58 -0.02 -0.026 0 255 208 41 
2.577 -0.026 -0.025 0 255 212 40 
2.583 -0.031 -0.024 0 255 212 40 
2.577 -0.037 -0.023 0 255 212 40 
2.572 -0.042 -0.022 0 255 204 42 
2.581 -0.047 -0.021 0 255 204 42 
2.576 -0.053 -0.02 0 255 212 40 
2.569 -0.058 -0.019 0 255 225 37 
2.573 -0.063 -0.018 0 255 216 39 
2.58 -0.069 -0.017 0 255 221 38 
2.578 -0.074 -0.016 0 255 225 37 
2.578 -0.08 -0.015 0 255 225 37 
2.574 -0.085 -0.014 0 255 216 39 
2.578 -0.091 -0.013 0 255 225 37 
2.581 -0.096 -0.012 0 255 225 37 
2.583 -0.102 -0.011 0 255 212 40 
2.587 -0.107 -0.01 0 255 182 47 
2.582 -0.102 -0.06 0 255 208 41 
2.579 -0.097 -0.057 0 255 204 42 
2.579 -0.092 -0.055 0 255 204 42 
2.579 -0.087 -0.053 0 255 204 42 
2.576 -0.082 -0.05 0 255 212 40 
2.579 -0.077 -0.048 0 255 199 43 
2.582 -0.072 -0.045 0 255 212 40 
2.582 -0.068 -0.043 0 255 212 40 
2.579 -0.063 -0.041 0 255 208 41 
2.58 -0.058 -0.038 0 255 208 41 
2.579 -0.053 -0.036 0 255 204 42 
2.576 -0.048 -0.033 0 255 212 40 
2.579 -0.043 -0.031 0 255 204 42 
2.575 -0.038 -0.028 0 255 195 44 
2.575 -0.033 -0.025 0 255 195 44 
2.58 -0.028 -0.023 0 255 208 41 
2.579 -0.023 -0.02 0 255 204 42 
2.571 -0.019 -0.018 0 255 199 43 
2.58 -0.014 -0.015 0 255 208 41 
2.575 -0.009 -0.013 0 255 195 44 
2.578 -0.007 0.031 0 255 187 46 
2.576 -0.009 0.026 0 255 191 45 
2.576 -0.011 0.021 0 255 212 40 
2.575 -0.013 0.016 0 255 195 44 
2.575 -0.015 0.011 0 255 195 44 
2.571 -0.018 0.006 0 255 199 43 
2.575 -0.02 0.001 0 255 195 44 
2.579 -0.022 -0.003 0 255 204 42 
2.575 -0.024 -0.009 0 255 195 44 
2.575 -0.026 -0.014 0 255 195 44 
2.567 -0.028 -0.019 0 255 191 45 
2.57 -0.03 -0.024 0 255 195 44 
2.576 -0.032 -0.029 0 255 191 45 
2.566 -0.034 -0.034 0 255 187 46 
2.569 -0.036 -0.039 0 255 182 47 
2.569 -0.038 -0.044 0 255 182 47 
2.57 -0.04 -0.049 0 255 182 47 
2.569 -0.042 -0.054 0 255 182 47 
2.567 -0.044 -0.059 0 255 178 48 
2.568 -0.046 -0.064 0 255 182 47 
2.574 -0.048 -0.069 0 255 187 46 
2.57 -0.017 -0.07 0 255 148 55 
2.566 -0.018 -0.065 0 255 165 51 
2.568 -0.02 -0.06 0 255 170 50 
2.565 -0.021 -0.054 0 255 170 50 
2.568 -0.023 -0.049 0 255 170 50 
2.569 -0.024 -0.044 0 255 165 51 
2.566 -0.026 -0.039 0 255 174 49 
2.572 -0.028 -0.034 0 255 174 49 
2.569 -0.029 -0.028 0 255 182 47 
2.57 -0.031 -0.023 0 255 178 48 
2.575 -0.033 -0.018 0 255 187 46 
2.573 -0.034 -0.012 0 255 191 45 
2.573 -0.036 -0.007 0 255 191 45 
2.571 -0.038 -0.002 0 255 199 43 
2.575 -0.039 0.002 0 255 195 44 
2.575 -0.041 0.008 0 255 195 44 
2.579 -0.043 0.013 0 255 204 42 
2.576 -0.045 0.018 0 255 212 40 
2.575 -0.046 0.023 0 255 195 44 
2.587 -0.048 0.028 0 255 153 54 
2.581 -0.104 0.025 0 255 199 43 
2.584 -0.1 0.022 0 255 212 40 
2.586 -0.096 0.019 0 255 204 42 
2.583 -0.091 0.016 0 255 212 40 
2.578 -0.086 0.013 0 255 221 38 
2.578 -0.082 0.01 0 255 221 38 
2.574 -0.077 0.006 0 255 216 39 
2.58 -0.073 0.003 0 255 204 42 
2.575 -0.069 0 0 255 212 40 
2.575 -0.064 -0.002 0 255 212 40 
2.581 -0.06 -0.005 0 255 204 42 
2.572 -0.055 -0.008 0 255 204 42 
2.577 -0.051 -0.011 0 255 212 40 
2.58 -0.046 -0.014 0 255 208 41 
2.58 -0.042 -0.017 0 255 208 41 
2.579 -0.037 -0.02 0 255 204 42 
2.575 -0.032 -0.023 0 255 195 44 
2.575 -0.028 -0.026 0 255 195 44 
2.576 -0.023 -0.029 0 255 191 45 
2.575 -0.019 -0.032 0 255 195 44 
2.573 -0.014 -0.035 0 255 191 45 
2.57 -0.009 -0.038 0 255 178 48 
2.58 -0.009 -0.022 0 255 208 41 
2.58 -0.014 -0.022 0 255 208 41 
2.572 -0.02 -0.023 0 255 204 42 
2.577 -0.025 -0.023 0 255 212 40 
2.575 -0.031 -0.024 0 255 199 43 
2.58 -0.036 -0.025 0 255 208 41 
2.577 -0.041 -0.025 0 255 212 40 
2.58 -0.047 -0.026 0 255 199 43 
2.575 -0.052 -0.027 0 255 212 40 
2.579 -0.058 -0.028 0 255 208 41 
2.576 -0.063 -0.028 0 255 212 40 
2.575 -0.069 -0.029 0 255 212 40 
2.577 -0.074 -0.03 0 255 216 39 
2.577 -0.08 -0.031 0 255 216 39 
2.575 -0.085 -0.032 0 255 212 40 
2.581 -0.091 -0.033 0 255 208 41 
2.574 -0.096 -0.033 0 255 221 38 
2.579 -0.102 -0.034 0 255 204 42 
2.589 -0.107 -0.036 0 255 174 49 
2.573 -0.075 -0.07 0 255 195 44 
2.579 -0.072 -0.066 0 255 208 41 
2.578 -0.068 -0.062 0 255 204 42 
2.574 -0.064 -0.058 0 255 195 44 
2.574 -0.06 -0.054 0 255 195 44 
2.574 -0.056 -0.05 0 255 195 44 
2.576 -0.052 -0.046 0 255 191 45 
2.575 -0.048 -0.042 0 255 195 44 
2.575 -0.044 -0.038 0 255 195 44 
2.575 -0.04 -0.034 0 255 195 44 
2.573 -0.037 -0.03 0 255 191 45 
2.568 -0.033 -0.026 0 255 178 48 
2.57 -0.029 -0.022 0 255 182 47 
2.575 -0.025 -0.018 0 255 195 44 
2.576 -0.022 -0.015 0 255 191 45 
2.578 -0.018 -0.01 0 255 187 46 
2.575 -0.014 -0.006 0 255 195 44 
2.575 -0.01 -0.002 0 255 195 44 
2.573 -0.007 0.001 0 255 191 45 
2.582 -0.026 0.03 0 255 136 58 
2.578 -0.027 0.024 0 255 187 46 
2.571 -0.027 0.019 0 255 199 43 
2.575 -0.028 0.013 0 255 195 44 
2.575 -0.028 0.008 0 255 195 44 
2.579 -0.029 0.003 0 255 204 42 
2.575 -0.029 -0.002 0 255 195 44 
2.575 -0.029 -0.007 0 255 195 44 
2.575 -0.03 -0.013 0 255 195 44 
2.575 -0.03 -0.018 0 255 195 44 
2.573 -0.03 -0.023 0 255 191 45 
2.576 -0.031 -0.029 0 255 182 47 
2.57 -0.031 -0.034 0 255 178 48 
2.568 -0.031 -0.04 0 255 170 50 
2.572 -0.032 -0.045 0 255 174 49 
2.566 -0.032 -0.051 0 255 174 49 
2.566 -0.032 -0.056 0 255 174 49 
2.57 -0.032 -0.062 0 255 178 48 
2.569 -0.033 -0.067 0 255 178 48 
2.568 -0.007 -0.057 0 255 170 50 
2.568 -0.01 -0.052 0 255 170 50 
2.563 -0.013 -0.048 0 255 182 47 
2.575 -0.017 -0.044 0 255 187 46 
2.569 -0.02 -0.039 0 255 182 47 
2.573 -0.023 -0.035 0 255 191 45 
2.569 -0.026 -0.03 0 255 182 47 
2.573 -0.029 -0.026 0 255 191 45 
2.575 -0.033 -0.021 0 255 195 44 
2.575 -0.036 -0.017 0 255 195 44 
2.58 -0.039 -0.012 0 255 208 41 
2.58 -0.043 -0.008 0 255 208 41 
2.577 -0.046 -0.003 0 255 212 40 
2.583 -0.049 0 0 255 212 40 
2.583 -0.053 0.004 0 255 212 40 
2.58 -0.056 0.009 0 255 199 43 
2.576 -0.059 0.013 0 255 212 40 
2.579 -0.063 0.017 0 255 221 38 
2.581 -0.066 0.022 0 255 204 42 
2.583 -0.07 0.026 0 255 208 41 
2.587 -0.073 0.031 0 255 157 53 
2.582 -0.104 -0.004 0 255 199 43 
2.579 -0.099 -0.005 0 255 221 38 
2.577 -0.094 -0.007 0 255 216 39 
2.575 -0.088 -0.008 0 255 212 40 
2.575 -0.083 -0.01 0 255 212 40 
2.581 -0.078 -0.011 0 255 208 41 
2.578 -0.073 -0.013 0 255 208 41 
2.584 -0.068 -0.014 0 255 199 43 
2.577 -0.062 -0.016 0 255 212 40 
2.572 -0.057 -0.017 0 255 204 42 
2.583 -0.052 -0.019 0 255 212 40 
2.577 -0.046 -0.02 0 255 212 40 
2.579 -0.041 -0.021 0 255 204 42 
2.579 -0.036 -0.023 0 255 204 42 
2.579 -0.031 -0.024 0 255 204 42 
2.575 -0.025 -0.025 0 255 195 44 
2.575 -0.02 -0.027 0 255 195 44 
2.575 -0.014 -0.028 0 255 195 44 
2.575 -0.009 -0.029 0 255 187 46 
2.577 -0.011 -0.015 0 255 212 40 
2.577 -0.016 -0.017 0 255 212 40 
2.58 -0.021 -0.02 0 255 199 43 
2.572 -0.026 -0.022 0 255 204 42 
2.577 -0.031 -0.024 0 255 212 40 
2.58 -0.036 -0.027 0 255 208 41 
2.577 -0.041 -0.029 0 255 212 40 
2.577 -0.046 -0.032 0 255 212 40 
2.572 -0.051 -0.034 0 255 204 42 
2.572 -0.056 -0.036 0 255 204 42 
2.579 -0.061 -0.039 0 255 199 43 
2.576 -0.066 -0.042 0 255 212 40 
2.579 -0.071 -0.044 0 255 199 43 
2.571 -0.075 -0.046 0 255 204 42 
2.576 -0.08 -0.049 0 255 212 40 
2.571 -0.085 -0.052 0 255 204 42 
2.573 -0.09 -0.054 0 255 212 40 
2.574 -0.095 -0.057 0 255 212 40 
2.571 -0.099 -0.059 0 255 216 39 
2.581 -0.105 -0.062 0 255 212 40 
2.567 -0.053 -0.071 0 255 178 48 
2.569 -0.051 -0.067 0 255 178 48 
2.567 -0.048 -0.062 0 255 178 48 
2.568 -0.046 -0.057 0 255 174 49 
2.57 -0.044 -0.052 0 255 178 48 
2.569 -0.041 -0.047 0 255 174 49 
2.57 -0.039 -0.042 0 255 178 48 
2.568 -0.037 -0.037 0 255 178 48 
2.569 -0.034 -0.032 0 255 174 49 
2.569 -0.032 -0.027 0 255 174 49 
2.57 -0.03 -0.022 0 255 178 48 
2.568 -0.027 -0.017 0 255 178 48 
2.57 -0.025 -0.012 0 255 178 48 
2.575 -0.023 -0.007 0 255 187 46 
2.573 -0.021 -0.002 0 255 191 45 
2.575 -0.018 0.002 0 255 187 46 
2.575 -0.016 0.007 0 255 195 44 
2.575 -0.014 0.012 0 255 195 44 
2.573 -0.012 0.017 0 255 191 45 
2.572 -0.01 0.022 0 255 174 49 
2.581 -0.007 0.027 0 255 131 59 
2.579 -0.044 0.028 0 255 157 53 
2.58 -0.043 0.023 0 255 208 41 
2.577 -0.042 0.018 0 255 212 40 
2.575 -0.04 0.012 0 255 195 44 
2.579 -0.039 0.007 0 255 204 42 
2.579 -0.038 0.002 0 255 204 42 
2.575 -0.036 -0.003 0 255 195 44 
2.575 -0.035 -0.008 0 255 195 44 
2.575 -0.033 -0.013 0 255 195 44 
2.569 -0.032 -0.018 0 255 182 47 
2.569 -0.031 -0.024 0 255 182 47 
2.569 -0.029 -0.029 0 255 182 47 
2.57 -0.028 -0.034 0 255 178 48 
2.572 -0.026 -0.039 0 255 174 49 
2.568 -0.025 -0.045 0 255 178 48 
2.568 -0.023 -0.05 0 255 178 48 
2.568 -0.022 -0.055 0 255 170 50 
2.565 -0.02 -0.06 0 255 170 50 
2.566 -0.019 -0.065 0 255 174 49 
2.567 -0.017 -0.071 0 255 170 50 
2.579 -0.011 -0.038 0 255 204 42 
2.579 -0.015 -0.035 0 255 204 42 
2.575 -0.02 -0.032 0 255 195 44 
2.579 -0.024 -0.029 0 255 204 42 
2.58 -0.029 -0.025 0 255 208 41 
2.571 -0.033 -0.022 0 255 199 43 
2.577 -0.038 -0.019 0 255 212 40 
2.577 -0.042 -0.016 0 255 212 40 
2.575 -0.047 -0.013 0 255 212 40 
2.576 -0.051 -0.01 0 255 212 40 
2.576 -0.056 -0.007 0 255 212 40 
2.576 -0.061 -0.004 0 255 212 40 
2.578 -0.065 0 0 255 216 39 
2.579 -0.07 0.002 0 255 221 38 
2.579 -0.074 0.005 0 255 221 38 
2.579 -0.079 0.008 0 255 229 36 
2.579 -0.084 0.011 0 255 229 36 
2.579 -0.088 0.014 0 255 229 36 
2.579 -0.093 0.017 0 255 229 36 
2.583 -0.098 0.02 0 255 229 36 
2.586 -0.103 0.023 0 255 208 41 
2.587 -0.107 0.025 0 255 212 40 
2.59 -0.107 -0.029 0 255 178 48 
2.582 -0.101 -0.028 0 255 199 43 
2.575 -0.095 -0.028 0 255 212 40 
2.58 -0.09 -0.028 0 255 204 42 
2.574 -0.084 -0.027 0 255 212 40 
2.574 -0.079 -0.027 0 255 212 40 
2.579 -0.074 -0.027 0 255 199 43 
2.579 -0.068 -0.027 0 255 199 43 
2.58 -0.063 -0.026 0 255 208 41 
2.577 -0.057 -0.026 0 255 212 40 
2.58 -0.052 -0.026 0 255 208 41 
2.58 -0.046 -0.025 0 255 208 41 
2.579 -0.041 -0.025 0 255 204 42 
2.575 -0.035 -0.024 0 255 195 44 
2.579 -0.03 -0.024 0 255 204 42 
2.575 -0.025 -0.024 0 255 195 44 
2.579 -0.019 -0.023 0 255 204 42 
2.575 -0.014 -0.023 0 255 195 44 
2.573 -0.008 -0.022 0 255 191 45 
2.58 -0.009 -0.003 0 255 208 41 
2.575 -0.013 -0.007 0 255 199 43 
2.576 -0.017 -0.01 0 255 212 40 
2.567 -0.02 -0.014 0 255 212 40 
2.576 -0.024 -0.018 0 255 212 40 
2.571 -0.028 -0.022 0 255 199 43 
2.575 -0.032 -0.026 0 255 195 44 
2.575 -0.036 -0.03 0 255 195 44 
2.575 -0.04 -0.034 0 255 195 44 
2.567 -0.044 -0.037 0 255 212 40 
2.575 -0.048 -0.041 0 255 195 44 
2.575 -0.052 -0.045 0 255 195 44 
2.57 -0.055 -0.049 0 255 199 43 
2.57 -0.059 -0.053 0 255 199 43 
2.57 -0.063 -0.057 0 255 199 43 
2.566 -0.066 -0.061 0 255 212 40 
2.571 -0.07 -0.065 0 255 204 42 
2.569 -0.074 -0.069 0 255 199 43 
2.567 -0.036 -0.069 0 255 170 50 
2.564 -0.035 -0.063 0 255 170 50 
2.568 -0.034 -0.058 0 255 170 50 
2.568 -0.034 -0.053 0 255 161 52 
2.566 -0.033 -0.047 0 255 174 49 
2.571 -0.032 -0.042 0 255 170 50 
2.569 -0.032 -0.036 0 255 174 49 
2.569 -0.031 -0.031 0 255 174 49 
2.57 -0.031 -0.025 0 255 178 48 
2.568 -0.03 -0.02 0 255 178 48 
2.569 -0.03 -0.015 0 255 182 47 
2.569 -0.029 -0.009 0 255 182 47 
2.573 -0.029 -0.004 0 255 191 45 
2.569 -0.028 0.001 0 255 182 47 
2.572 -0.028 0.006 0 255 178 48 
2.569 -0.027 0.012 0 255 182 47 
2.575 -0.027 0.017 0 255 195 44 
2.576 -0.026 0.023 0 255 182 47 
2.587 -0.026 0.028 0 255 97 67 
2.586 -0.066 0.029 0 255 153 54 
2.583 -0.063 0.024 0 255 199 43 
2.58 -0.06 0.019 0 255 199 43 
2.58 -0.057 0.015 0 255 199 43 
2.583 -0.054 0.01 0 255 212 40 
2.58 -0.051 0.006 0 255 208 41 
2.58 -0.048 0.001 0 255 208 41 
2.58 -0.045 -0.003 0 255 208 41 
2.579 -0.042 -0.007 0 255 204 42 
2.57 -0.039 -0.012 0 255 195 44 
2.57 -0.036 -0.016 0 255 195 44 
2.575 -0.033 -0.021 0 255 195 44 
2.573 -0.03 -0.025 0 255 191 45 
2.573 -0.027 -0.03 0 255 191 45 
2.569 -0.023 -0.034 0 255 174 49 
2.568 -0.02 -0.039 0 255 178 48 
2.569 -0.017 -0.043 0 255 182 47 
2.569 -0.014 -0.048 0 255 174 49 
2.566 -0.011 -0.052 0 255 174 49 
2.571 -0.008 -0.057 0 255 148 55 
2.58 -0.009 -0.031 0 255 208 41 
2.579 -0.014 -0.029 0 255 204 42 
2.577 -0.019 -0.027 0 255 212 40 
2.58 -0.025 -0.026 0 255 208 41 
2.577 -0.03 -0.024 0 255 212 40 
2.577 -0.035 -0.023 0 255 212 40 
2.575 -0.041 -0.021 0 255 212 40 
2.581 -0.046 -0.02 0 255 204 42 
2.576 -0.051 -0.018 0 255 212 40 
2.576 -0.057 -0.017 0 255 212 40 
2.575 -0.062 -0.015 0 255 212 40 
2.57 -0.067 -0.014 0 255 225 37 
2.579 -0.073 -0.013 0 255 221 38 
2.578 -0.078 -0.011 0 255 225 37 
2.576 -0.083 -0.01 0 255 221 38 
2.581 -0.089 -0.009 0 255 225 37 
2.579 -0.094 -0.007 0 255 229 36 
2.579 -0.099 -0.006 0 255 229 36 
2.589 -0.105 -0.005 0 255 195 44 
2.58 -0.105 -0.054 0 255 195 44 
2.579 -0.099 -0.052 0 255 204 42 
2.573 -0.094 -0.05 0 255 212 40 
2.573 -0.089 -0.048 0 255 212 40 
2.579 -0.084 -0.046 0 255 199 43 
2.579 -0.079 -0.044 0 255 199 43 
2.576 -0.074 -0.042 0 255 212 40 
2.579 -0.069 -0.04 0 255 199 43 
2.576 -0.064 -0.038 0 255 212 40 
2.577 -0.059 -0.036 0 255 212 40 
2.58 -0.054 -0.034 0 255 208 41 
2.58 -0.048 -0.032 0 255 208 41 
2.579 -0.043 -0.03 0 255 204 42 
2.575 -0.038 -0.027 0 255 195 44 
2.575 -0.033 -0.025 0 255 195 44 
2.571 -0.028 -0.023 0 255 199 43 
2.575 -0.023 -0.021 0 255 195 44 
2.571 -0.018 -0.019 0 255 199 43 
2.579 -0.013 -0.016 0 255 204 42 
2.576 -0.008 -0.014 0 255 191 45 
2.575 -0.008 0.018 0 255 195 44 
2.58 -0.011 0.013 0 255 208 41 
2.579 -0.013 0.008 0 255 204 42 
2.579 -0.016 0.004 0 255 204 42 
2.575 -0.019 0 0 255 195 44 
2.575 -0.021 -0.005 0 255 195 44 
2.575 -0.024 -0.01 0 255 195 44 
2.575 -0.026 -0.015 0 255 195 44 
2.575 -0.028 -0.02 0 255 195 44 
2.575 -0.031 -0.025 0 255 195 44 
2.573 -0.033 -0.03 0 255 191 45 
2.569 -0.036 -0.035 0 255 182 47 
2.569 -0.038 -0.039 0 255 182 47 
2.569 -0.04 -0.044 0 255 182 47 
2.569 -0.043 -0.049 0 255 182 47 
2.569 -0.045 -0.054 0 255 182 47 
2.568 -0.047 -0.059 0 255 182 47 
2.569 -0.05 -0.064 0 255 182 47 
2.574 -0.052 -0.069 0 255 187 46 
2.567 -0.02 -0.07 0 255 161 52 
2.566 -0.021 -0.065 0 255 165 51 
2.566 -0.023 -0.059 0 255 165 51 
2.568 -0.024 -0.054 0 255 170 50 
2.565 -0.025 -0.049 0 255 170 50 
2.566 -0.026 -0.043 0 255 174 49 
2.566 -0.027 -0.038 0 255 174 49 
2.57 -0.028 -0.033 0 255 178 48 
2.57 -0.03 -0.027 0 255 178 48 
2.569 -0.031 -0.022 0 255 182 47 
2.569 -0.032 -0.017 0 255 182 47 
2.57 -0.034 -0.011 0 255 182 47 
2.573 -0.035 -0.006 0 255 191 45 
2.575 -0.036 0 0 255 195 44 
2.575 -0.038 0.004 0 255 195 44 
2.575 -0.039 0.009 0 255 195 44 
2.575 -0.04 0.015 0 255 195 44 
2.579 -0.042 0.02 0 255 204 42 
2.578 -0.043 0.025 0 255 165 51 
2.585 -0.045 0.031 0 255 89 69 
2.591 -0.103 0.032 0 255 127 60 
2.586 -0.098 0.028 0 255 157 53 
2.587 -0.094 0.025 0 255 187 46 
2.586 -0.09 0.022 0 255 208 41 
2.58 -0.085 0.018 0 255 204 42 
2.575 -0.081 0.014 0 255 212 40 
2.58 -0.077 0.011 0 255 204 42 
2.58 -0.073 0.008 0 255 204 42 
2.58 -0.069 0.004 0 255 199 43 
2.58 -0.064 0.001 0 255 199 43 
2.572 -0.06 -0.002 0 255 204 42 
2.583 -0.056 -0.005 0 255 212 40 
2.577 -0.051 -0.008 0 255 212 40 
2.577 -0.047 -0.012 0 255 212 40 
2.58 -0.043 -0.015 0 255 208 41 
2.575 -0.038 -0.018 0 255 195 44 
2.575 -0.034 -0.022 0 255 195 44 
2.575 -0.029 -0.025 0 255 195 44 
2.569 -0.025 -0.028 0 255 182 47 
2.573 -0.021 -0.031 0 255 191 45 
2.573 -0.016 -0.035 0 255 191 45 
2.57 -0.012 -0.038 0 255 178 48 
2.571 -0.008 -0.041 0 255 170 50 
2.577 -0.012 -0.023 0 255 212 40 
2.58 -0.017 -0.023 0 255 208 41 
2.577 -0.023 -0.024 0 255 212 40 
2.577 -0.028 -0.024 0 255 212 40 
2.577 -0.034 -0.024 0 255 212 40 
2.58 -0.039 -0.025 0 255 199 43 
2.577 -0.045 -0.025 0 255 212 40 
2.575 -0.05 -0.025 0 255 212 40 
2.575 -0.056 -0.026 0 255 212 40 
2.576 -0.061 -0.026 0 255 212 40 
2.575 -0.067 -0.026 0 255 212 40 
2.58 -0.072 -0.027 0 255 204 42 
2.575 -0.078 -0.027 0 255 212 40 
2.574 -0.083 -0.028 0 255 216 39 
2.575 -0.089 -0.028 0 255 212 40 
2.576 -0.094 -0.029 0 255 221 38 
2.582 -0.1 -0.029 0 255 212 40 
2.586 -0.106 -0.03 0 255 187 46 
