2.58100009 -0.07700000 0.01500000 0 255 225 37.000000
2.58100009 -0.08100000 0.01800000 0 255 225 37.000000
2.58100009 -0.08500000 0.02200000 0 255 225 37.000000
2.58699989 -0.08900000 0.02500000 0 255 199 43.000000
2.59100008 -0.09400000 0.02900000 0 255 191 45.000000
2.59200001 -0.09800000 0.03200000 0 255 174 49.000000
2.58500004 -0.10500000 -0.02000000 0 255 208 41.000000
2.58500004 -0.09900000 -0.02000000 0 255 204 42.000000
2.57800007 -0.09400000 -0.02000000 0 255 221 38.000000
2.58299994 -0.08800000 -0.02100000 0 255 212 40.000000
2.58100009 -0.08300000 -0.02100000 0 255 208 41.000000
2.57999992 -0.07700000 -0.02200000 0 255 204 42.000000
2.57999992 -0.07200000 -0.02200000 0 255 204 42.000000
2.58299994 -0.06600000 -0.02200000 0 255 212 40.000000
2.57999992 -0.06100000 -0.02300000 0 255 199 43.000000
2.58100009 -0.05500000 -0.02300000 0 255 204 42.000000
2.58299994 -0.05000000 -0.02300000 0 255 212 40.000000
2.57999992 -0.04400000 -0.02400000 0 255 208 41.000000
2.57999992 -0.03900000 -0.02400000 0 255 208 41.000000
2.57999992 -0.03300000 -0.02400000 0 255 208 41.000000
2.57999992 -0.02800000 -0.02400000 0 255 208 41.000000
2.57999992 -0.02300000 -0.02400000 0 255 208 41.000000
2.57999992 -0.01700000 -0.02500000 0 255 208 41.000000
2.57999992 -0.01200000 -0.02500000 0 255 208 41.000000
2.58200002 -0.00700000 -0.00600000 0 255 204 42.000000
2.57999992 -0.01100000 -0.00900000 0 255 208 41.000000
2.57999992 -0.01600000 -0.01300000 0 255 208 41.000000
2.57999992 -0.02000000 -0.01600000 0 255 199 43.000000
2.57999992 -0.02400000 -0.01900000 0 255 199 43.000000
2.57999992 -0.02900000 -0.02300000 0 255 208 41.000000
2.57599998 -0.03300000 -0.02600000 0 255 212 40.000000
2.57999992 -0.03700000 -0.03000000 0 255 208 41.000000
2.57699990 -0.04200000 -0.03300000 0 255 212 40.000000
2.57699990 -0.04600000 -0.03600000 0 255 212 40.000000
2.57999992 -0.05000000 -0.04000000 0 255 208 41.000000
2.57699990 -0.05500000 -0.04300000 0 255 212 40.000000
2.57900000 -0.05900000 -0.04700000 0 255 208 41.000000
2.57599998 -0.06300000 -0.05000000 0 255 212 40.000000
2.57900000 -0.06800000 -0.05400000 0 255 208 41.000000
2.57100010 -0.07200000 -0.05700000 0 255 204 42.000000
2.57599998 -0.07600000 -0.06000000 0 255 212 40.000000
2.57500005 -0.08000000 -0.06400000 0 255 212 40.000000
2.57500005 -0.08400000 -0.06700000 0 255 212 40.000000
2.57999992 -0.08900000 -0.07100000 0 255 204 42.000000
2.57100010 -0.04100000 -0.06700000 0 255 174 49.000000
2.56699991 -0.04000000 -0.06200000 0 255 178 48.000000
2.56900001 -0.03800000 -0.05700000 0 255 174 49.000000
2.57100010 -0.03700000 -0.05100000 0 255 170 50.000000
2.56599998 -0.03600000 -0.04600000 0 255 165 51.000000
2.57100010 -0.03400000 -0.04100000 0 255 170 50.000000
2.56900001 -0.03300000 -0.03500000 0 255 174 49.000000
2.57200003 -0.03200000 -0.03000000 0 255 174 49.000000
2.57200003 -0.03100000 -0.02500000 0 255 174 49.000000
2.57299995 -0.02900000 -0.01900000 0 255 191 45.000000
2.57299995 -0.02800000 -0.01400000 0 255 191 45.000000
2.57599998 -0.02700000 -0.00900000 0 255 191 45.000000
2.57299995 -0.02600000 -0.00300000 0 255 191 45.000000
2.57500005 -0.02500000 0.00100000 0 255 195 44.000000
2.57599998 -0.02400000 0.00700000 0 255 191 45.000000
2.57500005 -0.02300000 0.01200000 0 255 195 44.000000
2.57500005 -0.02100000 0.01700000 0 255 195 44.000000
2.57299995 -0.02000000 0.02300000 0 255 178 48.000000
2.58500004 -0.01900000 0.02800000 0 255 106 65.000000
2.58800006 -0.05700000 0.02800000 0 255 157 53.000000
2.58599997 -0.05400000 0.02300000 0 255 204 42.000000
2.57500005 -0.05200000 0.01800000 0 255 212 40.000000
2.58299994 -0.04900000 0.01300000 0 255 212 40.000000
2.58299994 -0.04700000 0.00800000 0 255 212 40.000000
2.57999992 -0.04500000 0.00300000 0 255 208 41.000000
2.57999992 -0.04200000 -0.00100000 0 255 208 41.000000
2.57999992 -0.04000000 -0.00600000 0 255 208 41.000000
2.58200002 -0.03700000 -0.01100000 0 255 204 42.000000
2.57500005 -0.03500000 -0.01600000 0 255 195 44.000000
2.57999992 -0.03200000 -0.02100000 0 255 208 41.000000
2.57999992 -0.03000000 -0.02600000 0 255 199 43.000000
2.57299995 -0.02700000 -0.03000000 0 255 191 45.000000
2.56999993 -0.02500000 -0.03500000 0 255 178 48.000000
2.57299995 -0.02200000 -0.04000000 0 255 191 45.000000
2.56900001 -0.02000000 -0.04500000 0 255 182 47.000000
2.56800008 -0.01700000 -0.05000000 0 255 178 48.000000
2.56599998 -0.01500000 -0.05400000 0 255 174 49.000000
2.56900001 -0.01200000 -0.05900000 0 255 174 49.000000
2.56599998 -0.00900000 -0.06400000 0 255 174 49.000000
2.57500005 -0.00700000 -0.06900000 0 255 153 54.000000
2.57999992 -0.00900000 -0.03300000 0 255 208 41.000000
2.57999992 -0.01400000 -0.03100000 0 255 208 41.000000
2.58299994 -0.02000000 -0.02900000 0 255 212 40.000000
2.57699990 -0.02400000 -0.02700000 0 255 212 40.000000
2.57999992 -0.03000000 -0.02500000 0 255 199 43.000000
2.58299994 -0.03500000 -0.02200000 0 255 212 40.000000
2.57500005 -0.04000000 -0.02000000 0 255 212 40.000000
2.58100009 -0.04500000 -0.01800000 0 255 204 42.000000
2.57699990 -0.05000000 -0.01600000 0 255 221 38.000000
2.57999992 -0.05500000 -0.01400000 0 255 221 38.000000
2.57599998 -0.06000000 -0.01200000 0 255 212 40.000000
2.57699990 -0.06500000 -0.01000000 0 255 221 38.000000
2.57999992 -0.07000000 -0.00800000 0 255 221 38.000000
2.58100009 -0.07600000 -0.00600000 0 255 225 37.000000
2.58100009 -0.08100000 -0.00400000 0 255 225 37.000000
2.57900000 -0.08600000 -0.00200000 0 255 229 36.000000
2.57900000 -0.09100000 0.00000000 0 255 229 36.000000
2.58299994 -0.09600000 0.00100000 0 255 233 35.000000
2.58800006 -0.10200000 0.00300000 0 255 208 41.000000
2.59500003 -0.10700000 0.00500000 0 255 178 48.000000
2.58200002 -0.10300000 -0.04300000 0 255 208 41.000000
2.57599998 -0.09700000 -0.04200000 0 255 216 39.000000
2.57999992 -0.09200000 -0.04100000 0 255 204 42.000000
2.58299994 -0.08700000 -0.03900000 0 255 199 43.000000
2.57900000 -0.08100000 -0.03800000 0 255 199 43.000000
2.57999992 -0.07600000 -0.03700000 0 255 204 42.000000
2.58299994 -0.07100000 -0.03500000 0 255 199 43.000000
2.58299994 -0.06600000 -0.03400000 0 255 199 43.000000
2.58299994 -0.06000000 -0.03300000 0 255 212 40.000000
2.58400011 -0.05500000 -0.03100000 0 255 199 43.000000
2.58299994 -0.05000000 -0.03000000 0 255 212 40.000000
2.57999992 -0.04400000 -0.02800000 0 255 208 41.000000
2.57999992 -0.03900000 -0.02700000 0 255 208 41.000000
2.57999992 -0.03400000 -0.02500000 0 255 208 41.000000
2.57999992 -0.02800000 -0.02400000 0 255 208 41.000000
2.57999992 -0.02300000 -0.02200000 0 255 208 41.000000
2.57999992 -0.01800000 -0.02000000 0 255 208 41.000000
2.57699990 -0.01300000 -0.01900000 0 255 212 40.000000
2.58299994 -0.00700000 -0.01700000 0 255 199 43.000000
2.58200002 -0.00800000 0.00800000 0 255 204 42.000000
2.57999992 -0.01100000 0.00400000 0 255 208 41.000000
2.57999992 -0.01400000 0.00000000 0 255 199 43.000000
2.57999992 -0.01700000 -0.00400000 0 255 208 41.000000
2.57999992 -0.02000000 -0.00900000 0 255 208 41.000000
2.57900000 -0.02300000 -0.01300000 0 255 204 42.000000
2.57599998 -0.02600000 -0.01800000 0 255 212 40.000000
2.57500005 -0.02900000 -0.02300000 0 255 195 44.000000
2.57500005 -0.03300000 -0.02700000 0 255 195 44.000000
2.57500005 -0.03600000 -0.03200000 0 255 195 44.000000
2.57500005 -0.03900000 -0.03600000 0 255 195 44.000000
2.57500005 -0.04200000 -0.04100000 0 255 195 44.000000
2.57500005 -0.04400000 -0.04500000 0 255 195 44.000000
2.57500005 -0.04700000 -0.05000000 0 255 195 44.000000
2.57399988 -0.05000000 -0.05500000 0 255 195 44.000000
2.57599998 -0.05600000 -0.06400000 0 255 212 40.000000
2.57800007 -0.05900000 -0.06900000 0 255 204 42.000000
2.56699991 -0.02700000 -0.06700000 0 255 170 50.000000
2.56900001 -0.02700000 -0.06200000 0 255 165 51.000000
2.57100010 -0.02800000 -0.05600000 0 255 170 50.000000
2.57100010 -0.02800000 -0.04500000 0 255 170 50.000000
2.56900001 -0.02900000 -0.04000000 0 255 174 49.000000
2.57200003 -0.02900000 -0.03400000 0 255 174 49.000000
2.57200003 -0.03000000 -0.02900000 0 255 174 49.000000
2.56999993 -0.03100000 -0.02300000 0 255 178 48.000000
2.56999993 -0.03100000 -0.01800000 0 255 178 48.000000
2.57299995 -0.03200000 -0.01300000 0 255 191 45.000000
2.57500005 -0.03200000 -0.00700000 0 255 195 44.000000
2.57500005 -0.03300000 -0.00200000 0 255 195 44.000000
2.57500005 -0.03400000 0.00300000 0 255 195 44.000000
2.57500005 -0.03400000 0.00800000 0 255 195 44.000000
2.57900000 -0.03500000 0.01400000 0 255 204 42.000000
2.57500005 -0.03600000 0.01900000 0 255 195 44.000000
2.58500004 -0.03600000 0.02500000 0 255 157 53.000000
2.58699989 -0.03700000 0.03000000 0 255 97 67.000000
2.59200001 -0.08500000 0.03100000 0 255 127 60.000000
2.59299994 -0.08200000 0.02700000 0 255 174 49.000000
2.58599997 -0.07800000 0.02300000 0 255 208 41.000000
2.58100009 -0.07400000 0.01900000 0 255 208 41.000000
2.58299994 -0.07000000 0.01500000 0 255 216 39.000000
2.58100009 -0.06600000 0.01100000 0 255 204 42.000000
2.58400011 -0.06200000 0.00700000 0 255 199 43.000000
2.58299994 -0.05900000 0.00300000 0 255 212 40.000000
2.57699990 -0.05500000 0.00000000 0 255 212 40.000000
2.58299994 -0.05100000 -0.00400000 0 255 212 40.000000
2.58299994 -0.04700000 -0.00800000 0 255 212 40.000000
2.57999992 -0.04300000 -0.01200000 0 255 208 41.000000
2.57999992 -0.03900000 -0.01600000 0 255 208 41.000000
2.57999992 -0.03500000 -0.01900000 0 255 208 41.000000
2.57900000 -0.03100000 -0.02300000 0 255 204 42.000000
2.57900000 -0.02800000 -0.02700000 0 255 204 42.000000
2.57599998 -0.02400000 -0.03100000 0 255 191 45.000000
2.57500005 -0.02000000 -0.03500000 0 255 187 46.000000
2.57500005 -0.01600000 -0.03800000 0 255 195 44.000000
2.57200003 -0.01200000 -0.04200000 0 255 178 48.000000
2.57200003 -0.00800000 -0.04600000 0 255 174 49.000000
2.57699990 -0.01000000 -0.02600000 0 255 212 40.000000
2.57999992 -0.01600000 -0.02500000 0 255 208 41.000000
2.57999992 -0.02100000 -0.02500000 0 255 199 43.000000
2.57999992 -0.02700000 -0.02400000 0 255 199 43.000000
2.58299994 -0.03200000 -0.02400000 0 255 212 40.000000
2.57999992 -0.03800000 -0.02400000 0 255 199 43.000000
2.58100009 -0.04300000 -0.02300000 0 255 204 42.000000
2.58100009 -0.04900000 -0.02300000 0 255 204 42.000000
2.58100009 -0.05400000 -0.02200000 0 255 204 42.000000
2.57800007 -0.06000000 -0.02200000 0 255 216 39.000000
2.57500005 -0.06500000 -0.02200000 0 255 216 39.000000
2.57800007 -0.07100000 -0.02100000 0 255 221 38.000000
2.57900000 -0.07600000 -0.02100000 0 255 221 38.000000
2.57900000 -0.08200000 -0.02100000 0 255 221 38.000000
2.57900000 -0.08700000 -0.02100000 0 255 221 38.000000
2.57900000 -0.09300000 -0.02000000 0 255 229 36.000000
2.58100009 -0.09800000 -0.02000000 0 255 225 37.000000
2.58400011 -0.10400000 -0.02000000 0 255 212 40.000000
2.58200002 -0.10100000 -0.07000000 0 255 199 43.000000
2.57800007 -0.09600000 -0.06700000 0 255 199 43.000000
2.57900000 -0.09200000 -0.06500000 0 255 204 42.000000
2.58100009 -0.08700000 -0.06200000 0 255 212 40.000000
2.56999993 -0.08200000 -0.05800000 0 255 204 42.000000
2.57599998 -0.07800000 -0.05600000 0 255 212 40.000000
2.57900000 -0.07300000 -0.05300000 0 255 208 41.000000
2.57900000 -0.06900000 -0.05000000 0 255 208 41.000000
2.57900000 -0.06400000 -0.04700000 0 255 208 41.000000
2.57599998 -0.05900000 -0.04400000 0 255 212 40.000000
2.57999992 -0.05500000 -0.04100000 0 255 208 41.000000
2.57999992 -0.05000000 -0.03800000 0 255 208 41.000000
2.57999992 -0.04600000 -0.03400000 0 255 208 41.000000
2.57999992 -0.04100000 -0.03100000 0 255 208 41.000000
2.57900000 -0.03700000 -0.02800000 0 255 204 42.000000
2.57900000 -0.03200000 -0.02500000 0 255 204 42.000000
2.57999992 -0.02800000 -0.02200000 0 255 208 41.000000
2.57999992 -0.02300000 -0.01900000 0 255 208 41.000000
2.57999992 -0.01800000 -0.01600000 0 255 208 41.000000
2.57999992 -0.01400000 -0.01200000 0 255 208 41.000000
2.57999992 -0.00900000 -0.00900000 0 255 208 41.000000
2.58200002 -0.01400000 0.03200000 0 255 136 58.000000
2.58200002 -0.01600000 0.02600000 0 255 195 44.000000
2.57699990 -0.01700000 0.02100000 0 255 212 40.000000
2.57599998 -0.01900000 0.01600000 0 255 212 40.000000
2.57999992 -0.02000000 0.01100000 0 255 208 41.000000
2.57900000 -0.02200000 0.00500000 0 255 204 42.000000
2.57500005 -0.02300000 0.00000000 0 255 195 44.000000
2.57500005 -0.02500000 -0.00400000 0 255 195 44.000000
2.57500005 -0.02600000 -0.00900000 0 255 195 44.000000
2.57900000 -0.02800000 -0.01500000 0 255 204 42.000000
2.57900000 -0.02900000 -0.02000000 0 255 204 42.000000
2.57500005 -0.03100000 -0.02500000 0 255 195 44.000000
2.57500005 -0.03200000 -0.03000000 0 255 195 44.000000
2.57500005 -0.03400000 -0.03600000 0 255 187 46.000000
2.56999993 -0.03500000 -0.04100000 0 255 178 48.000000
2.56900001 -0.03600000 -0.04600000 0 255 182 47.000000
2.56900001 -0.03800000 -0.05100000 0 255 182 47.000000
2.56900001 -0.03900000 -0.05700000 0 255 182 47.000000
2.56800008 -0.04000000 -0.06200000 0 255 182 47.000000
2.57399988 -0.04200000 -0.06700000 0 255 187 46.000000
2.56599998 -0.01200000 -0.06600000 0 255 174 49.000000
2.56500006 -0.01600000 -0.05600000 0 255 170 50.000000
2.56900001 -0.01900000 -0.05100000 0 255 174 49.000000
2.56999993 -0.02100000 -0.04600000 0 255 178 48.000000
2.56999993 -0.02300000 -0.04100000 0 255 178 48.000000
2.56999993 -0.02500000 -0.03600000 0 255 178 48.000000
2.57500005 -0.02700000 -0.03100000 0 255 187 46.000000
2.57599998 -0.03000000 -0.02600000 0 255 182 47.000000
2.57599998 -0.03200000 -0.02100000 0 255 191 45.000000
2.57599998 -0.03400000 -0.01600000 0 255 191 45.000000
2.57900000 -0.03700000 -0.01100000 0 255 204 42.000000
2.57900000 -0.03900000 -0.00600000 0 255 204 42.000000
2.57999992 -0.04100000 -0.00100000 0 255 208 41.000000
2.57999992 -0.04400000 0.00300000 0 255 208 41.000000
2.57999992 -0.04600000 0.00800000 0 255 208 41.000000
2.58299994 -0.04800000 0.01300000 0 255 212 40.000000
2.58299994 -0.05100000 0.01800000 0 255 212 40.000000
2.58400011 -0.05300000 0.02300000 0 255 208 41.000000
2.58800006 -0.05600000 0.02800000 0 255 157 53.000000
2.58800006 -0.10700000 0.01500000 0 255 199 43.000000
2.58200002 -0.10200000 0.01200000 0 255 216 39.000000
2.57900000 -0.09700000 0.01000000 0 255 221 38.000000
2.57900000 -0.09300000 0.00700000 0 255 221 38.000000
2.58400011 -0.08800000 0.00400000 0 255 212 40.000000
2.58299994 -0.08300000 0.00200000 0 255 212 40.000000
2.57900000 -0.07800000 0.00000000 0 255 221 38.000000
2.58100009 -0.07300000 -0.00200000 0 255 208 41.000000
2.58100009 -0.06800000 -0.00500000 0 255 204 42.000000
2.57999992 -0.06400000 -0.00700000 0 255 199 43.000000
2.58100009 -0.05900000 -0.01000000 0 255 204 42.000000
2.58100009 -0.05400000 -0.01200000 0 255 204 42.000000
2.57699990 -0.04900000 -0.01500000 0 255 212 40.000000
2.57999992 -0.04400000 -0.01700000 0 255 208 41.000000
2.57900000 -0.03900000 -0.02000000 0 255 204 42.000000
2.57900000 -0.03400000 -0.02200000 0 255 204 42.000000
2.57999992 -0.02900000 -0.02500000 0 255 208 41.000000
2.57999992 -0.02500000 -0.02700000 0 255 208 41.000000
2.57500005 -0.02000000 -0.02900000 0 255 195 44.000000
2.57599998 -0.01500000 -0.03200000 0 255 191 45.000000
2.57500005 -0.01000000 -0.03400000 0 255 187 46.000000
2.57999992 -0.00800000 -0.01900000 0 255 208 41.000000
2.57999992 -0.01300000 -0.02000000 0 255 199 43.000000
2.57999992 -0.01800000 -0.02100000 0 255 199 43.000000
2.57999992 -0.02400000 -0.02300000 0 255 199 43.000000
2.58299994 -0.02900000 -0.02400000 0 255 212 40.000000
2.57999992 -0.03500000 -0.02500000 0 255 208 41.000000
2.57999992 -0.04000000 -0.02600000 0 255 199 43.000000
2.58400011 -0.04500000 -0.02800000 0 255 199 43.000000
2.57200003 -0.05000000 -0.02900000 0 255 204 42.000000
2.57599998 -0.05600000 -0.03000000 0 255 212 40.000000
2.57800007 -0.06100000 -0.03200000 0 255 216 39.000000
2.57500005 -0.06600000 -0.03300000 0 255 212 40.000000
2.57699990 -0.07200000 -0.03500000 0 255 216 39.000000
2.57999992 -0.07700000 -0.03600000 0 255 204 42.000000
2.57500005 -0.08200000 -0.03800000 0 255 212 40.000000
2.57699990 -0.08800000 -0.03900000 0 255 216 39.000000
2.57299995 -0.09300000 -0.04000000 0 255 216 39.000000
2.57699990 -0.09800000 -0.04200000 0 255 221 38.000000
2.58200002 -0.10400000 -0.04400000 0 255 199 43.000000
2.57399988 -0.06700000 -0.07100000 0 255 195 44.000000
2.57800007 -0.06400000 -0.06700000 0 255 204 42.000000
2.57399988 -0.06000000 -0.06200000 0 255 195 44.000000
2.57399988 -0.05700000 -0.05800000 0 255 195 44.000000
2.57399988 -0.05400000 -0.05400000 0 255 195 44.000000
2.57299995 -0.05000000 -0.05000000 0 255 191 45.000000
2.57299995 -0.04700000 -0.04500000 0 255 191 45.000000
2.57299995 -0.04300000 -0.04100000 0 255 191 45.000000
2.56999993 -0.04000000 -0.03600000 0 255 178 48.000000
2.57500005 -0.03700000 -0.03200000 0 255 187 46.000000
2.56999993 -0.03300000 -0.02800000 0 255 178 48.000000
2.57299995 -0.03000000 -0.02300000 0 255 191 45.000000
2.57500005 -0.02700000 -0.01900000 0 255 187 46.000000
2.57299995 -0.02300000 -0.01500000 0 255 191 45.000000
2.56999993 -0.02000000 -0.01000000 0 255 182 47.000000
2.57500005 -0.01700000 -0.00600000 0 255 195 44.000000
2.57500005 -0.01400000 -0.00100000 0 255 195 44.000000
2.57500005 -0.01000000 0.00200000 0 255 195 44.000000
2.57599998 -0.00700000 0.00700000 0 255 191 45.000000
2.58699989 -0.03300000 0.03100000 0 255 114 63.000000
2.58100009 -0.03200000 0.02600000 0 255 178 48.000000
2.57999992 -0.03200000 0.02000000 0 255 208 41.000000
2.57900000 -0.03200000 0.01500000 0 255 204 42.000000
2.57599998 -0.03200000 0.00900000 0 255 212 40.000000
2.57999992 -0.03200000 0.00400000 0 255 208 41.000000
2.57999992 -0.03200000 -0.00100000 0 255 208 41.000000
2.57900000 -0.03100000 -0.00600000 0 255 204 42.000000
2.57500005 -0.03100000 -0.01200000 0 255 195 44.000000
2.57599998 -0.03100000 -0.01700000 0 255 191 45.000000
2.57500005 -0.03100000 -0.02200000 0 255 195 44.000000
2.57299995 -0.03000000 -0.02800000 0 255 178 48.000000
2.56999993 -0.03000000 -0.03300000 0 255 178 48.000000
2.56999993 -0.03000000 -0.03900000 0 255 178 48.000000
2.56900001 -0.02900000 -0.04400000 0 255 174 49.000000
2.56599998 -0.02900000 -0.05000000 0 255 174 49.000000
2.56900001 -0.02900000 -0.05500000 0 255 174 49.000000
2.56800008 -0.02800000 -0.06100000 0 255 170 50.000000
2.56800008 -0.02800000 -0.06600000 0 255 174 49.000000
2.56800008 -0.02700000 -0.07100000 0 255 165 51.000000
2.56900001 -0.00900000 -0.04800000 0 255 182 47.000000
2.57299995 -0.01300000 -0.04400000 0 255 191 45.000000
2.57299995 -0.01600000 -0.04000000 0 255 191 45.000000
2.57299995 -0.02000000 -0.03600000 0 255 191 45.000000
2.57500005 -0.02400000 -0.03200000 0 255 195 44.000000
2.57500005 -0.02700000 -0.02800000 0 255 195 44.000000
2.58200002 -0.03100000 -0.02400000 0 255 204 42.000000
2.57999992 -0.03500000 -0.01900000 0 255 208 41.000000
2.57999992 -0.03900000 -0.01500000 0 255 208 41.000000
2.57999992 -0.04200000 -0.01100000 0 255 199 43.000000
2.57999992 -0.04600000 -0.00700000 0 255 199 43.000000
2.58100009 -0.05000000 -0.00300000 0 255 204 42.000000
2.57800007 -0.05400000 0.00000000 0 255 204 42.000000
2.58100009 -0.05700000 0.00400000 0 255 204 42.000000
2.58699989 -0.06100000 0.00800000 0 255 204 42.000000
2.57999992 -0.06500000 0.01200000 0 255 221 38.000000
2.57999992 -0.06900000 0.01600000 0 255 221 38.000000
2.58500004 -0.07300000 0.02000000 0 255 216 39.000000
2.58599997 -0.07700000 0.02400000 0 255 204 42.000000
2.59100008 -0.08100000 0.02800000 0 255 191 45.000000
2.58999991 -0.08500000 0.03200000 0 255 148 55.000000
2.58599997 -0.10700000 -0.01100000 0 255 187 46.000000
2.57800007 -0.10200000 -0.01200000 0 255 221 38.000000
2.58400011 -0.09700000 -0.01300000 0 255 212 40.000000
2.58299994 -0.09100000 -0.01400000 0 255 212 40.000000
2.58500004 -0.08600000 -0.01500000 0 255 199 43.000000
2.57999992 -0.08000000 -0.01600000 0 255 204 42.000000
2.57800007 -0.07500000 -0.01700000 0 255 208 41.000000
2.57999992 -0.06900000 -0.01800000 0 255 204 42.000000
2.57999992 -0.06400000 -0.01900000 0 255 199 43.000000
2.57999992 -0.05900000 -0.02000000 0 255 199 43.000000
2.57999992 -0.05300000 -0.02100000 0 255 199 43.000000
2.57999992 -0.04800000 -0.02200000 0 255 208 41.000000
2.57999992 -0.04200000 -0.02200000 0 255 208 41.000000
2.57999992 -0.03700000 -0.02300000 0 255 208 41.000000
2.57900000 -0.03100000 -0.02400000 0 255 204 42.000000
2.57999992 -0.02600000 -0.02500000 0 255 208 41.000000
2.57999992 -0.02100000 -0.02600000 0 255 208 41.000000
2.57900000 -0.01500000 -0.02600000 0 255 204 42.000000
2.57599998 -0.01000000 -0.02700000 0 255 191 45.000000
2.57699990 -0.00900000 -0.01100000 0 255 212 40.000000
2.57999992 -0.01400000 -0.01400000 0 255 199 43.000000
2.57999992 -0.01900000 -0.01700000 0 255 199 43.000000
2.57999992 -0.02300000 -0.02000000 0 255 199 43.000000
2.57999992 -0.02800000 -0.02200000 0 255 208 41.000000
2.57999992 -0.03300000 -0.02500000 0 255 208 41.000000
2.57999992 -0.03700000 -0.02800000 0 255 208 41.000000
2.57699990 -0.04200000 -0.03100000 0 255 212 40.000000
2.57200003 -0.04600000 -0.03400000 0 255 204 42.000000
2.57200003 -0.05100000 -0.03700000 0 255 204 42.000000
2.57200003 -0.05600000 -0.04000000 0 255 204 42.000000
2.57599998 -0.06000000 -0.04300000 0 255 212 40.000000
2.57100010 -0.06500000 -0.04600000 0 255 204 42.000000
2.57900000 -0.07000000 -0.04900000 0 255 199 43.000000
2.57599998 -0.07400000 -0.05200000 0 255 212 40.000000
2.57599998 -0.07900000 -0.05500000 0 255 212 40.000000
2.57500005 -0.08300000 -0.05800000 0 255 212 40.000000
2.57299995 -0.08800000 -0.06100000 0 255 212 40.000000
2.57399988 -0.09200000 -0.06400000 0 255 212 40.000000
2.57500005 -0.09700000 -0.06700000 0 255 212 40.000000
2.58100009 -0.10200000 -0.07100000 0 255 208 41.000000
2.56900001 -0.04600000 -0.06600000 0 255 178 48.000000
2.56800008 -0.04400000 -0.06100000 0 255 174 49.000000
2.56900001 -0.04200000 -0.05600000 0 255 174 49.000000
2.57100010 -0.04000000 -0.05100000 0 255 170 50.000000
2.57100010 -0.03800000 -0.04600000 0 255 170 50.000000
2.57200003 -0.03600000 -0.04100000 0 255 174 49.000000
2.56900001 -0.03400000 -0.03600000 0 255 174 49.000000
2.57100010 -0.03300000 -0.03000000 0 255 170 50.000000
2.57200003 -0.03100000 -0.02500000 0 255 174 49.000000
2.57500005 -0.02900000 -0.02000000 0 255 187 46.000000
2.57500005 -0.02700000 -0.01500000 0 255 187 46.000000
2.57500005 -0.02600000 -0.01000000 0 255 187 46.000000
2.57599998 -0.02400000 -0.00400000 0 255 191 45.000000
2.57599998 -0.02200000 0.00000000 0 255 191 45.000000
2.57599998 -0.02100000 0.00500000 0 255 191 45.000000
2.57599998 -0.01900000 0.01000000 0 255 191 45.000000
2.57599998 -0.01700000 0.01500000 0 255 191 45.000000
2.57599998 -0.01600000 0.02100000 0 255 191 45.000000
2.58200002 -0.01400000 0.02600000 0 255 136 58.000000
2.58699989 -0.01200000 0.03100000 0 255 59 76.000000
2.58800006 -0.05100000 0.03100000 0 255 106 65.000000
2.58400011 -0.04900000 0.02600000 0 255 170 50.000000
2.57999992 -0.04700000 0.02000000 0 255 208 41.000000
2.58299994 -0.04500000 0.01500000 0 255 212 40.000000
2.58299994 -0.04400000 0.01000000 0 255 212 40.000000
2.57900000 -0.04200000 0.00500000 0 255 204 42.000000
2.57999992 -0.04000000 0.00000000 0 255 208 41.000000
2.57900000 -0.03800000 -0.00400000 0 255 204 42.000000
2.57500005 -0.03600000 -0.00900000 0 255 195 44.000000
2.57500005 -0.03400000 -0.01500000 0 255 195 44.000000
2.57500005 -0.03200000 -0.02000000 0 255 195 44.000000
2.57599998 -0.03000000 -0.02500000 0 255 191 45.000000
2.57599998 -0.02800000 -0.03000000 0 255 191 45.000000
2.57200003 -0.02600000 -0.03500000 0 255 174 49.000000
2.56999993 -0.02400000 -0.04000000 0 255 178 48.000000
2.56999993 -0.02200000 -0.04500000 0 255 178 48.000000
2.56999993 -0.02000000 -0.05000000 0 255 178 48.000000
2.56900001 -0.01800000 -0.05500000 0 255 174 49.000000
2.56900001 -0.01600000 -0.06000000 0 255 165 51.000000
2.56800008 -0.01400000 -0.06500000 0 255 170 50.000000
2.56800008 -0.01200000 -0.07000000 0 255 174 49.000000
2.57999992 -0.01000000 -0.03600000 0 255 208 41.000000
2.57999992 -0.01500000 -0.03300000 0 255 208 41.000000
2.57999992 -0.02000000 -0.03000000 0 255 208 41.000000
2.57699990 -0.02400000 -0.02800000 0 255 212 40.000000
2.57999992 -0.02900000 -0.02500000 0 255 208 41.000000
2.57999992 -0.03400000 -0.02200000 0 255 208 41.000000
2.57999992 -0.03900000 -0.01900000 0 255 199 43.000000
2.58100009 -0.04400000 -0.01700000 0 255 204 42.000000
2.57599998 -0.04900000 -0.01400000 0 255 212 40.000000
2.57900000 -0.05400000 -0.01100000 0 255 221 38.000000
2.57900000 -0.05800000 -0.00900000 0 255 221 38.000000
2.57999992 -0.06300000 -0.00600000 0 255 221 38.000000
2.57999992 -0.06800000 -0.00300000 0 255 221 38.000000
2.57900000 -0.07300000 -0.00100000 0 255 221 38.000000
2.57900000 -0.07800000 0.00100000 0 255 229 36.000000
2.58100009 -0.08300000 0.00300000 0 255 225 37.000000
2.58299994 -0.08800000 0.00600000 0 255 233 35.000000
2.57999992 -0.09300000 0.00800000 0 255 246 32.000000
2.57699990 -0.09800000 0.01100000 0 255 242 33.000000
2.58800006 -0.10300000 0.01300000 0 255 204 42.000000
2.59200001 -0.10800000 0.01600000 0 255 174 49.000000
2.58100009 -0.10400000 -0.03500000 0 255 199 43.000000
2.58200002 -0.09900000 -0.03500000 0 255 199 43.000000
2.57500005 -0.09300000 -0.03400000 0 255 212 40.000000
2.58299994 -0.08800000 -0.03300000 0 255 199 43.000000
2.57999992 -0.08300000 -0.03200000 0 255 204 42.000000
2.57399988 -0.07700000 -0.03200000 0 255 212 40.000000
2.58299994 -0.07200000 -0.03100000 0 255 199 43.000000
2.58200002 -0.06700000 -0.03000000 0 255 212 40.000000
2.57999992 -0.06100000 -0.02900000 0 255 199 43.000000
2.58299994 -0.05600000 -0.02800000 0 255 212 40.000000
2.57999992 -0.05000000 -0.02700000 0 255 208 41.000000
2.57999992 -0.04500000 -0.02700000 0 255 208 41.000000
2.57999992 -0.03900000 -0.02600000 0 255 208 41.000000
2.57900000 -0.03400000 -0.02500000 0 255 204 42.000000
2.57900000 -0.02900000 -0.02400000 0 255 204 42.000000
2.57999992 -0.02300000 -0.02300000 0 255 208 41.000000
2.57900000 -0.01800000 -0.02200000 0 255 204 42.000000
2.57999992 -0.01200000 -0.02100000 0 255 208 41.000000
2.58200002 -0.00700000 -0.02000000 0 255 195 44.000000
2.58200002 -0.00800000 0.00100000 0 255 204 42.000000
2.57999992 -0.01100000 -0.00200000 0 255 208 41.000000
2.57999992 -0.01500000 -0.00600000 0 255 208 41.000000
2.57999992 -0.01900000 -0.01000000 0 255 208 41.000000
2.57699990 -0.02200000 -0.01400000 0 255 212 40.000000
2.57699990 -0.02600000 -0.01800000 0 255 212 40.000000
2.57900000 -0.02900000 -0.02200000 0 255 204 42.000000
2.57900000 -0.03300000 -0.02700000 0 255 204 42.000000
2.57500005 -0.03600000 -0.03100000 0 255 195 44.000000
2.57500005 -0.04000000 -0.03500000 0 255 195 44.000000
2.57500005 -0.04300000 -0.03900000 0 255 195 44.000000
2.57500005 -0.04700000 -0.04300000 0 255 195 44.000000
2.57500005 -0.05000000 -0.04800000 0 255 195 44.000000
2.57399988 -0.05400000 -0.05200000 0 255 195 44.000000
2.56599998 -0.05700000 -0.05600000 0 255 212 40.000000
2.57500005 -0.06000000 -0.06100000 0 255 212 40.000000
2.57900000 -0.06400000 -0.06500000 0 255 208 41.000000
2.57900000 -0.06700000 -0.06900000 0 255 208 41.000000
2.56699991 -0.03200000 -0.06800000 0 255 170 50.000000
2.56900001 -0.03100000 -0.06200000 0 255 165 51.000000
2.56800008 -0.03100000 -0.05700000 0 255 170 50.000000
2.56900001 -0.03100000 -0.05100000 0 255 165 51.000000
2.57100010 -0.03100000 -0.04600000 0 255 170 50.000000
2.56900001 -0.03100000 -0.04000000 0 255 174 49.000000
2.56599998 -0.03100000 -0.03500000 0 255 174 49.000000
2.56900001 -0.03100000 -0.02900000 0 255 174 49.000000
2.56999993 -0.03000000 -0.02400000 0 255 178 48.000000
2.57200003 -0.03000000 -0.01800000 0 255 174 49.000000
2.57299995 -0.03000000 -0.01300000 0 255 191 45.000000
2.57500005 -0.03000000 -0.00700000 0 255 195 44.000000
2.57500005 -0.03000000 -0.00200000 0 255 195 44.000000
2.57500005 -0.03000000 0.00300000 0 255 195 44.000000
2.57599998 -0.03000000 0.00800000 0 255 191 45.000000
2.57900000 -0.03000000 0.01400000 0 255 204 42.000000
2.57500005 -0.03000000 0.01900000 0 255 195 44.000000
2.57900000 -0.03100000 0.02500000 0 255 157 53.000000
2.58999991 -0.03100000 0.03000000 0 255 80 71.000000
2.59299994 -0.07300000 0.02900000 0 255 136 58.000000
2.58999991 -0.06900000 0.02400000 0 255 195 44.000000
2.58400011 -0.06600000 0.02000000 0 255 199 43.000000
2.58400011 -0.06300000 0.01600000 0 255 199 43.000000
2.58100009 -0.05900000 0.01100000 0 255 204 42.000000
2.58400011 -0.05600000 0.00700000 0 255 199 43.000000
2.58299994 -0.05300000 0.00300000 0 255 212 40.000000
2.57999992 -0.04900000 -0.00100000 0 255 208 41.000000
2.57999992 -0.04600000 -0.00500000 0 255 208 41.000000
2.57699990 -0.04200000 -0.00900000 0 255 212 40.000000
2.57900000 -0.03900000 -0.01400000 0 255 204 42.000000
2.57900000 -0.03600000 -0.01800000 0 255 204 42.000000
2.57900000 -0.03200000 -0.02200000 0 255 204 42.000000
2.57500005 -0.02900000 -0.02600000 0 255 195 44.000000
2.57500005 -0.02500000 -0.03100000 0 255 195 44.000000
2.57599998 -0.02200000 -0.03500000 0 255 191 45.000000
2.57299995 -0.01800000 -0.03900000 0 255 191 45.000000
2.56900001 -0.01500000 -0.04300000 0 255 182 47.000000
2.56999993 -0.01100000 -0.04700000 0 255 178 48.000000
2.57500005 -0.00800000 -0.05200000 0 255 153 54.000000
2.57999992 -0.00900000 -0.02900000 0 255 208 41.000000
2.57699990 -0.01500000 -0.02700000 0 255 212 40.000000
2.57999992 -0.02000000 -0.02600000 0 255 199 43.000000
2.57699990 -0.02500000 -0.02500000 0 255 212 40.000000
2.58299994 -0.03100000 -0.02400000 0 255 212 40.000000
2.58299994 -0.03600000 -0.02300000 0 255 212 40.000000
2.58100009 -0.04200000 -0.02200000 0 255 204 42.000000
2.58400011 -0.04700000 -0.02100000 0 255 199 43.000000
2.57599998 -0.05200000 -0.02000000 0 255 212 40.000000
2.57599998 -0.05800000 -0.01900000 0 255 212 40.000000
2.57500005 -0.06300000 -0.01800000 0 255 216 39.000000
2.57999992 -0.06900000 -0.01700000 0 255 221 38.000000
2.57900000 -0.07400000 -0.01600000 0 255 221 38.000000
2.57800007 -0.08000000 -0.01500000 0 255 225 37.000000
2.57900000 -0.08500000 -0.01400000 0 255 221 38.000000
2.58100009 -0.09100000 -0.01300000 0 255 225 37.000000
2.57800007 -0.09600000 -0.01200000 0 255 225 37.000000
2.58599997 -0.10200000 -0.01200000 0 255 208 41.000000
2.59200001 -0.10800000 -0.01100000 0 255 174 49.000000
2.58500004 -0.10700000 -0.06300000 0 255 157 53.000000
2.57800007 -0.10200000 -0.06000000 0 255 208 41.000000
2.57699990 -0.09700000 -0.05800000 0 255 208 41.000000
2.57900000 -0.09200000 -0.05500000 0 255 204 42.000000
2.57800007 -0.08700000 -0.05300000 0 255 199 43.000000
2.58200002 -0.08200000 -0.05100000 0 255 212 40.000000
2.58200002 -0.07800000 -0.04800000 0 255 212 40.000000
2.57900000 -0.07200000 -0.04600000 0 255 199 43.000000
2.58200002 -0.06800000 -0.04300000 0 255 212 40.000000
2.58200002 -0.06300000 -0.04100000 0 255 212 40.000000
2.57999992 -0.05800000 -0.03800000 0 255 199 43.000000
2.57999992 -0.05300000 -0.03600000 0 255 208 41.000000
2.57999992 -0.04800000 -0.03300000 0 255 208 41.000000
2.57900000 -0.04300000 -0.03100000 0 255 204 42.000000
2.57900000 -0.03800000 -0.02800000 0 255 204 42.000000
2.57900000 -0.03300000 -0.02600000 0 255 204 42.000000
2.57900000 -0.02900000 -0.02300000 0 255 204 42.000000
2.57999992 -0.02400000 -0.02000000 0 255 208 41.000000
2.57999992 -0.01900000 -0.01800000 0 255 208 41.000000
2.57999992 -0.01400000 -0.01500000 0 255 208 41.000000
2.58200002 -0.00900000 -0.01300000 0 255 204 42.000000
2.58200002 -0.00700000 0.02900000 0 255 174 49.000000
2.58200002 -0.01000000 0.02400000 0 255 195 44.000000
2.57999992 -0.01200000 0.01900000 0 255 208 41.000000
2.57900000 -0.01400000 0.01400000 0 255 204 42.000000
2.57599998 -0.01600000 0.00900000 0 255 212 40.000000
2.57599998 -0.01800000 0.00400000 0 255 212 40.000000
2.57900000 -0.02100000 0.00000000 0 255 204 42.000000
2.57500005 -0.02300000 -0.00500000 0 255 195 44.000000
2.57500005 -0.02500000 -0.01000000 0 255 195 44.000000
2.57500005 -0.02700000 -0.01500000 0 255 195 44.000000
2.57500005 -0.02900000 -0.02000000 0 255 195 44.000000
2.57500005 -0.03100000 -0.02500000 0 255 195 44.000000
2.57299995 -0.03300000 -0.03000000 0 255 191 45.000000
2.56900001 -0.03500000 -0.03500000 0 255 182 47.000000
2.56900001 -0.03700000 -0.04000000 0 255 182 47.000000
2.56900001 -0.03900000 -0.04600000 0 255 182 47.000000
2.56900001 -0.04100000 -0.05100000 0 255 182 47.000000
2.57299995 -0.04300000 -0.05600000 0 255 191 45.000000
2.56800008 -0.04500000 -0.06100000 0 255 182 47.000000
2.57399988 -0.04700000 -0.06600000 0 255 195 44.000000
2.57200003 -0.04900000 -0.07100000 0 255 178 48.000000
2.56800008 -0.01800000 -0.06700000 0 255 170 50.000000
2.56599998 -0.01900000 -0.06100000 0 255 165 51.000000
2.56800008 -0.02100000 -0.05600000 0 255 170 50.000000
2.56599998 -0.02200000 -0.05100000 0 255 174 49.000000
2.57100010 -0.02400000 -0.04600000 0 255 170 50.000000
2.56999993 -0.02500000 -0.04000000 0 255 178 48.000000
2.56999993 -0.02700000 -0.03500000 0 255 178 48.000000
2.56999993 -0.02900000 -0.03000000 0 255 178 48.000000
2.57599998 -0.03000000 -0.02500000 0 255 182 47.000000
2.57500005 -0.03200000 -0.02000000 0 255 187 46.000000
2.57599998 -0.03400000 -0.01400000 0 255 191 45.000000
2.57500005 -0.03500000 -0.00900000 0 255 195 44.000000
2.57500005 -0.03700000 -0.00400000 0 255 195 44.000000
2.57500005 -0.03900000 0.00000000 0 255 195 44.000000
2.57900000 -0.04100000 0.00600000 0 255 204 42.000000
2.57699990 -0.04200000 0.01100000 0 255 212 40.000000
2.57699990 -0.04400000 0.01600000 0 255 212 40.000000
2.57999992 -0.04600000 0.02100000 0 255 208 41.000000
2.58200002 -0.04800000 0.02700000 0 255 165 51.000000
2.58999991 -0.05000000 0.03200000 0 255 80 71.000000
2.58999991 -0.10500000 0.02600000 0 255 199 43.000000
2.58800006 -0.10100000 0.02300000 0 255 199 43.000000
2.58599997 -0.09600000 0.02000000 0 255 204 42.000000
2.58299994 -0.09200000 0.01600000 0 255 212 40.000000
2.58400011 -0.08800000 0.01300000 0 255 212 40.000000
2.58299994 -0.08300000 0.01000000 0 255 212 40.000000
2.58299994 -0.07900000 0.00700000 0 255 212 40.000000
2.57800007 -0.07400000 0.00400000 0 255 221 38.000000
2.57900000 -0.06900000 0.00100000 0 255 208 41.000000
2.58400011 -0.06500000 -0.00100000 0 255 199 43.000000
2.58100009 -0.06100000 -0.00400000 0 255 204 42.000000
2.58100009 -0.05600000 -0.00700000 0 255 204 42.000000
2.58299994 -0.05200000 -0.01000000 0 255 212 40.000000
2.58299994 -0.04700000 -0.01300000 0 255 212 40.000000
2.57999992 -0.04200000 -0.01600000 0 255 208 41.000000
2.57999992 -0.03800000 -0.01900000 0 255 208 41.000000
2.57900000 -0.03300000 -0.02200000 0 255 204 42.000000
2.57900000 -0.02900000 -0.02500000 0 255 204 42.000000
2.57500005 -0.02400000 -0.02800000 0 255 195 44.000000
2.57500005 -0.01900000 -0.03100000 0 255 195 44.000000
2.57500005 -0.01500000 -0.03400000 0 255 195 44.000000
2.57200003 -0.01000000 -0.03700000 0 255 178 48.000000
2.57999992 -0.00900000 -0.02200000 0 255 208 41.000000
2.57999992 -0.01400000 -0.02200000 0 255 199 43.000000
2.57699990 -0.02000000 -0.02300000 0 255 212 40.000000
2.57999992 -0.02500000 -0.02400000 0 255 199 43.000000
2.58299994 -0.03100000 -0.02400000 0 255 212 40.000000
2.58299994 -0.03600000 -0.02500000 0 255 212 40.000000
2.58100009 -0.04200000 -0.02600000 0 255 204 42.000000
2.58100009 -0.04700000 -0.02600000 0 255 204 42.000000
2.58100009 -0.05300000 -0.02700000 0 255 204 42.000000
2.57500005 -0.05800000 -0.02800000 0 255 212 40.000000
2.58100009 -0.06400000 -0.02900000 0 255 204 42.000000
2.57999992 -0.06900000 -0.02900000 0 255 204 42.000000
2.57399988 -0.07500000 -0.03000000 0 255 216 39.000000
2.58100009 -0.08000000 -0.03100000 0 255 208 41.000000
2.58400011 -0.08600000 -0.03200000 0 255 212 40.000000
2.57599998 -0.09100000 -0.03300000 0 255 221 38.000000
2.57800007 -0.09600000 -0.03300000 0 255 221 38.000000
2.58200002 -0.10200000 -0.03400000 0 255 199 43.000000
2.58899999 -0.10800000 -0.03500000 0 255 174 49.000000
2.57800007 -0.07400000 -0.06800000 0 255 204 42.000000
2.57800007 -0.07000000 -0.06400000 0 255 204 42.000000
2.57800007 -0.06600000 -0.06000000 0 255 204 42.000000
2.57399988 -0.06200000 -0.05600000 0 255 195 44.000000
2.57399988 -0.05800000 -0.05300000 0 255 195 44.000000
2.57399988 -0.05500000 -0.04900000 0 255 195 44.000000
2.57500005 -0.05100000 -0.04500000 0 255 195 44.000000
2.57500005 -0.04700000 -0.04100000 0 255 195 44.000000
2.57500005 -0.04300000 -0.03700000 0 255 195 44.000000
2.57599998 -0.03900000 -0.03300000 0 255 191 45.000000
2.57299995 -0.03500000 -0.02900000 0 255 191 45.000000
2.57299995 -0.03100000 -0.02500000 0 255 191 45.000000
2.57299995 -0.02800000 -0.02100000 0 255 191 45.000000
2.57500005 -0.02400000 -0.01700000 0 255 195 44.000000
2.57599998 -0.02000000 -0.01300000 0 255 191 45.000000
2.57299995 -0.01600000 -0.00900000 0 255 191 45.000000
2.57299995 -0.01300000 -0.00500000 0 255 191 45.000000
2.57900000 -0.00900000 -0.00100000 0 255 204 42.000000
2.58100009 -0.02600000 0.02800000 0 255 144 56.000000
2.57999992 -0.02700000 0.02300000 0 255 208 41.000000
2.57599998 -0.02700000 0.01700000 0 255 212 40.000000
2.57500005 -0.02800000 0.01200000 0 255 195 44.000000
2.57999992 -0.02800000 0.00700000 0 255 208 41.000000
2.57900000 -0.02900000 0.00100000 0 255 204 42.000000
2.57900000 -0.02900000 -0.00300000 0 255 204 42.000000
2.57500005 -0.02900000 -0.00900000 0 255 195 44.000000
2.57500005 -0.03000000 -0.01400000 0 255 195 44.000000
2.57500005 -0.03000000 -0.02000000 0 255 195 44.000000
2.57599998 -0.03100000 -0.02500000 0 255 182 47.000000
2.57500005 -0.03100000 -0.03000000 0 255 195 44.000000
2.56900001 -0.03100000 -0.03600000 0 255 182 47.000000
2.56900001 -0.03200000 -0.04100000 0 255 182 47.000000
2.56800008 -0.03200000 -0.04700000 0 255 178 48.000000
2.56999993 -0.03200000 -0.05200000 0 255 178 48.000000
2.57200003 -0.03300000 -0.05800000 0 255 174 49.000000
2.56699991 -0.03300000 -0.06300000 0 255 178 48.000000
2.57100010 -0.03300000 -0.06900000 0 255 174 49.000000
2.56599998 -0.00900000 -0.05500000 0 255 174 49.000000
2.57200003 -0.01200000 -0.05000000 0 255 174 49.000000
2.56900001 -0.01500000 -0.04600000 0 255 182 47.000000
2.56900001 -0.01800000 -0.04100000 0 255 182 47.000000
2.57200003 -0.02200000 -0.03700000 0 255 178 48.000000
2.57599998 -0.02500000 -0.03200000 0 255 191 45.000000
2.57500005 -0.02800000 -0.02800000 0 255 195 44.000000
2.57500005 -0.03100000 -0.02300000 0 255 195 44.000000
2.57900000 -0.03500000 -0.01900000 0 255 204 42.000000
2.57500005 -0.03800000 -0.01400000 0 255 195 44.000000
2.57999992 -0.04100000 -0.01000000 0 255 208 41.000000
2.57999992 -0.04400000 -0.00500000 0 255 208 41.000000
2.58299994 -0.04800000 -0.00100000 0 255 212 40.000000
2.58100009 -0.05100000 0.00300000 0 255 204 42.000000
2.57999992 -0.05400000 0.00700000 0 255 199 43.000000
2.57999992 -0.05700000 0.01200000 0 255 199 43.000000
2.58100009 -0.06100000 0.01600000 0 255 204 42.000000
2.58200002 -0.06400000 0.02000000 0 255 208 41.000000
2.58299994 -0.06800000 0.02500000 0 255 199 43.000000
2.58999991 -0.07100000 0.02900000 0 255 174 49.000000
2.58599997 -0.10400000 -0.00300000 0 255 208 41.000000
2.57900000 -0.09800000 -0.00400000 0 255 221 38.000000
2.57800007 -0.09300000 -0.00600000 0 255 221 38.000000
2.58100009 -0.08800000 -0.00800000 0 255 208 41.000000
2.57699990 -0.08300000 -0.00900000 0 255 216 39.000000
2.58100009 -0.07800000 -0.01100000 0 255 208 41.000000
2.57500005 -0.07200000 -0.01200000 0 255 212 40.000000
2.57500005 -0.06700000 -0.01400000 0 255 212 40.000000
2.58299994 -0.06200000 -0.01500000 0 255 212 40.000000
2.57999992 -0.05600000 -0.01700000 0 255 199 43.000000
2.57999992 -0.05100000 -0.01800000 0 255 199 43.000000
2.57699990 -0.04600000 -0.02000000 0 255 212 40.000000
2.57999992 -0.04100000 -0.02100000 0 255 208 41.000000
2.57900000 -0.03500000 -0.02300000 0 255 204 42.000000
2.57900000 -0.03000000 -0.02400000 0 255 204 42.000000
2.57900000 -0.02500000 -0.02600000 0 255 204 42.000000
2.57500005 -0.01900000 -0.02700000 0 255 195 44.000000
2.57500005 -0.01400000 -0.02800000 0 255 195 44.000000
2.57500005 -0.00900000 -0.03000000 0 255 187 46.000000
2.57999992 -0.01100000 -0.01500000 0 255 199 43.000000
2.57999992 -0.01600000 -0.01700000 0 255 199 43.000000
2.57999992 -0.02100000 -0.02000000 0 255 208 41.000000
2.57699990 -0.02600000 -0.02200000 0 255 212 40.000000
2.57999992 -0.03100000 -0.02400000 0 255 208 41.000000
2.57999992 -0.03600000 -0.02600000 0 255 208 41.000000
2.57999992 -0.04100000 -0.02900000 0 255 208 41.000000
2.57699990 -0.04600000 -0.03100000 0 255 212 40.000000
2.57999992 -0.05100000 -0.03300000 0 255 199 43.000000
2.57500005 -0.05500000 -0.03600000 0 255 212 40.000000
2.57900000 -0.06100000 -0.03800000 0 255 199 43.000000
2.57900000 -0.06600000 -0.04100000 0 255 199 43.000000
2.57900000 -0.07000000 -0.04300000 0 255 199 43.000000
2.57900000 -0.07500000 -0.04600000 0 255 199 43.000000
2.57100010 -0.08000000 -0.04800000 0 255 204 42.000000
2.57900000 -0.08500000 -0.05100000 0 255 199 43.000000
2.57399988 -0.09000000 -0.05300000 0 255 212 40.000000
2.57299995 -0.09500000 -0.05500000 0 255 216 39.000000
2.57599998 -0.10000000 -0.05800000 0 255 216 39.000000
2.57999992 -0.10500000 -0.06100000 0 255 204 42.000000
2.57500005 -0.05300000 -0.06900000 0 255 191 45.000000
2.56900001 -0.05100000 -0.06400000 0 255 178 48.000000
2.56800008 -0.04800000 -0.05900000 0 255 182 47.000000
2.56900001 -0.04500000 -0.05400000 0 255 182 47.000000
2.56900001 -0.04300000 -0.04900000 0 255 182 47.000000
2.56999993 -0.04000000 -0.04400000 0 255 178 48.000000
2.56900001 -0.03800000 -0.03900000 0 255 182 47.000000
2.56900001 -0.03500000 -0.03400000 0 255 182 47.000000
2.56999993 -0.03300000 -0.02900000 0 255 178 48.000000
2.56999993 -0.03100000 -0.02400000 0 255 178 48.000000
2.56900001 -0.02800000 -0.01900000 0 255 182 47.000000
2.56999993 -0.02600000 -0.01400000 0 255 178 48.000000
2.56900001 -0.02300000 -0.00900000 0 255 182 47.000000
2.57599998 -0.02100000 -0.00400000 0 255 191 45.000000
2.57599998 -0.01900000 0.00000000 0 255 191 45.000000
2.57599998 -0.01600000 0.00400000 0 255 191 45.000000
2.57500005 -0.01400000 0.00900000 0 255 195 44.000000
2.57500005 -0.01200000 0.01400000 0 255 195 44.000000
2.57500005 -0.00900000 0.01900000 0 255 195 44.000000
2.57800007 -0.00700000 0.02400000 0 255 165 51.000000
2.58200002 -0.04300000 0.03000000 0 255 136 58.000000
2.57800007 -0.04200000 0.02400000 0 255 187 46.000000
2.57900000 -0.04100000 0.01900000 0 255 204 42.000000
2.57999992 -0.03900000 0.01400000 0 255 208 41.000000
2.57100010 -0.03800000 0.00800000 0 255 199 43.000000
2.57999992 -0.03700000 0.00300000 0 255 208 41.000000
2.57999992 -0.03600000 -0.00100000 0 255 208 41.000000
2.57500005 -0.03500000 -0.00700000 0 255 195 44.000000
2.57500005 -0.03300000 -0.01200000 0 255 195 44.000000
2.57500005 -0.03200000 -0.01700000 0 255 195 44.000000
2.57299995 -0.03100000 -0.02300000 0 255 191 45.000000
2.57500005 -0.03000000 -0.02800000 0 255 187 46.000000
2.56999993 -0.02800000 -0.03300000 0 255 178 48.000000
2.56999993 -0.02700000 -0.03900000 0 255 178 48.000000
2.56900001 -0.02600000 -0.04400000 0 255 174 49.000000
2.56999993 -0.02400000 -0.04900000 0 255 178 48.000000
2.56800008 -0.02300000 -0.05400000 0 255 178 48.000000
2.56900001 -0.02100000 -0.06000000 0 255 174 49.000000
2.56599998 -0.02000000 -0.06500000 0 255 174 49.000000
2.56500006 -0.01900000 -0.07000000 0 255 174 49.000000
2.57299995 -0.00700000 -0.04200000 0 255 191 45.000000
2.57500005 -0.01200000 -0.03800000 0 255 195 44.000000
2.57500005 -0.01600000 -0.03500000 0 255 195 44.000000
2.57900000 -0.02000000 -0.03200000 0 255 204 42.000000
2.57999992 -0.02500000 -0.02900000 0 255 208 41.000000
2.57999992 -0.02900000 -0.02500000 0 255 208 41.000000
2.57999992 -0.03400000 -0.02200000 0 255 208 41.000000
2.57699990 -0.03800000 -0.01800000 0 255 212 40.000000
2.57999992 -0.04300000 -0.01500000 0 255 199 43.000000
2.58100009 -0.04700000 -0.01200000 0 255 204 42.000000
2.57800007 -0.05200000 -0.00900000 0 255 216 39.000000
2.57800007 -0.05600000 -0.00500000 0 255 216 39.000000
2.57599998 -0.06000000 -0.00200000 0 255 212 40.000000
2.58400011 -0.06500000 0.00000000 0 255 216 39.000000
2.57900000 -0.06900000 0.00300000 0 255 225 37.000000
2.57900000 -0.07400000 0.00600000 0 255 221 38.000000
2.57900000 -0.07900000 0.01000000 0 255 229 36.000000
2.57900000 -0.08300000 0.01300000 0 255 229 36.000000
2.58100009 -0.08800000 0.01600000 0 255 225 37.000000
2.57900000 -0.09200000 0.01900000 0 255 229 36.000000
2.58100009 -0.09700000 0.02200000 0 255 225 37.000000
2.58800006 -0.10200000 0.02500000 0 255 208 41.000000
2.58800006 -0.10600000 0.02800000 0 255 208 41.000000
2.58200002 -0.10400000 -0.02600000 0 255 208 41.000000
2.58500004 -0.09900000 -0.02600000 0 255 204 42.000000
2.58100009 -0.09300000 -0.02600000 0 255 212 40.000000
2.57999992 -0.08800000 -0.02600000 0 255 204 42.000000
2.57999992 -0.08200000 -0.02600000 0 255 204 42.000000
2.57999992 -0.07700000 -0.02500000 0 255 204 42.000000
2.58299994 -0.07100000 -0.02500000 0 255 199 43.000000
2.58299994 -0.06600000 -0.02500000 0 255 212 40.000000
2.57999992 -0.06000000 -0.02500000 0 255 199 43.000000
2.57699990 -0.05500000 -0.02500000 0 255 212 40.000000
2.58299994 -0.04900000 -0.02500000 0 255 212 40.000000
2.57999992 -0.04400000 -0.02500000 0 255 208 41.000000
2.57900000 -0.03800000 -0.02400000 0 255 204 42.000000
2.57999992 -0.03300000 -0.02400000 0 255 208 41.000000
2.57999992 -0.02700000 -0.02400000 0 255 208 41.000000
2.57900000 -0.02200000 -0.02400000 0 255 204 42.000000
2.57900000 -0.01600000 -0.02300000 0 255 204 42.000000
2.57900000 -0.01100000 -0.02300000 0 255 204 42.000000
2.57999992 -0.00800000 -0.00400000 0 255 208 41.000000
2.57999992 -0.01200000 -0.00800000 0 255 208 41.000000
2.57699990 -0.01600000 -0.01100000 0 255 212 40.000000
2.57599998 -0.02000000 -0.01500000 0 255 212 40.000000
2.57999992 -0.02400000 -0.01900000 0 255 208 41.000000
2.57900000 -0.02800000 -0.02200000 0 255 204 42.000000
2.57500005 -0.03300000 -0.02600000 0 255 195 44.000000
2.57500005 -0.03700000 -0.03000000 0 255 195 44.000000
2.57100010 -0.04100000 -0.03300000 0 255 199 43.000000
2.57100010 -0.04400000 -0.03700000 0 255 199 43.000000
2.57599998 -0.04900000 -0.04100000 0 255 212 40.000000
2.57100010 -0.05200000 -0.04400000 0 255 199 43.000000
2.56999993 -0.05600000 -0.04800000 0 255 204 42.000000
2.57399988 -0.06000000 -0.05200000 0 255 195 44.000000
2.56999993 -0.06400000 -0.05600000 0 255 204 42.000000
2.57599998 -0.06800000 -0.05900000 0 255 212 40.000000
2.57599998 -0.07200000 -0.06300000 0 255 212 40.000000
2.57500005 -0.07600000 -0.06700000 0 255 212 40.000000
2.57399988 -0.08000000 -0.07100000 0 255 191 45.000000
2.56800008 -0.03800000 -0.07000000 0 255 174 49.000000
2.56999993 -0.03700000 -0.06500000 0 255 170 50.000000
2.56800008 -0.03600000 -0.05900000 0 255 170 50.000000
2.56900001 -0.03500000 -0.05400000 0 255 174 49.000000
2.56900001 -0.03400000 -0.04800000 0 255 165 51.000000
2.56800008 -0.03300000 -0.04300000 0 255 170 50.000000
2.56900001 -0.03300000 -0.03800000 0 255 174 49.000000
2.57100010 -0.03200000 -0.03200000 0 255 170 50.000000
2.56900001 -0.03100000 -0.02700000 0 255 174 49.000000
2.56999993 -0.03000000 -0.02100000 0 255 178 48.000000
2.56900001 -0.02900000 -0.01600000 0 255 182 47.000000
2.56900001 -0.02800000 -0.01000000 0 255 182 47.000000
2.57800007 -0.02800000 -0.00500000 0 255 187 46.000000
2.57599998 -0.02700000 0.00000000 0 255 191 45.000000
2.57299995 -0.02600000 0.00500000 0 255 191 45.000000
2.57500005 -0.02500000 0.01100000 0 255 187 46.000000
2.57500005 -0.02500000 0.01600000 0 255 195 44.000000
2.57500005 -0.02400000 0.02200000 0 255 187 46.000000
2.58200002 -0.02300000 0.02700000 0 255 136 58.000000
2.58800006 -0.02300000 0.03200000 0 255 46 79.000000
2.59100008 -0.06300000 0.03100000 0 255 136 58.000000
2.58800006 -0.06000000 0.02600000 0 255 182 47.000000
2.58299994 -0.05700000 0.02100000 0 255 212 40.000000
